ply
format ascii 1.0
element vertex 1277
property float x
property float y
property float z
property uchar red
property uchar green
property uchar blue
end_header
-0.151150 0.040910 -0.261781 255 0 0
0.029956 0.303168 -0.413173 255 0 0
0.032859 -0.216352 0.125720 153 0 76
-0.231325 0.489790 -0.520898 255 0 0
-0.357407 0.289246 -0.358110 0 0 255
-0.019811 0.583303 -0.557177 255 0 0
0.491231 0.138515 -0.271085 0 0 255
0.159229 0.361028 -0.446589 255 0 0
0.311896 -0.129750 -0.185047 127 0 127
0.408814 0.571969 -0.515196 255 0 0
-0.029587 0.210771 -0.359824 255 0 0
0.316323 0.138044 -0.317862 255 0 0
0.203900 0.239582 -0.376475 255 0 0
0.177438 0.471580 -0.463380 0 0 255
-0.066972 -0.150261 0.224892 0 127 127
-0.393375 0.422047 -0.481774 255 0 0
-0.216956 -0.215188 0.526965 153 0 76
-0.559555 -0.199588 0.328908 153 0 76
-0.479977 -0.142724 0.187371 0 127 127
-0.343222 0.033594 -0.210509 0 0 255
-0.223662 -0.216352 -0.061385 153 0 76
0.264934 -0.142724 0.648826 153 0 76
0.261420 0.214468 -0.361980 255 0 0
0.424424 0.562516 -0.509739 255 0 0
0.403199 -0.142724 0.420816 0 127 127
0.057577 0.091981 -0.244219 0 0 255
0.483280 0.298788 -0.363619 0 0 255
-0.543174 0.492194 -0.522261 255 0 0
-0.406239 -0.150261 -0.018048 153 0 76
0.415230 0.430843 -0.486917 255 0 0
0.197889 0.415667 -0.478138 255 0 0
-0.211263 -0.162988 -0.146946 127 0 127
-0.340192 0.334801 -0.431414 255 0 0
-0.057543 0.491370 -0.521825 255 0 0
-0.042112 -0.213115 -0.128680 153 0 76
0.470440 -0.216352 0.481891 153 0 76
0.529184 -0.142724 -0.044798 0 127 127
0.160291 -0.062298 -0.202209 255 0 0
-0.108249 0.165830 -0.286856 0 0 255
-0.566302 -0.143501 0.292824 153 0 76
-0.328568 0.393702 -0.465414 255 0 0
-0.121497 0.266551 -0.392020 255 0 0
0.319652 0.031813 -0.256530 255 0 0
-0.424331 0.528155 -0.540959 255 0 0
-0.182439 -0.142724 0.576288 153 0 76
0.543433 0.117405 -0.253465 255 0 0
-0.110744 0.456896 -0.501917 255 0 0
0.579488 0.431533 -0.468649 255 0 0
0.415188 0.365064 -0.448939 255 0 0
-0.152312 -0.177902 -0.142478 153 0 76
0.535157 -0.142724 -0.089086 153 0 76
0.085030 0.362143 -0.447227 255 0 0
-0.184463 -0.216352 0.224880 153 0 76
0.418123 -0.158548 -0.162367 127 0 127
0.512987 -0.216255 0.500796 153 0 76
-0.581724 0.215826 -0.328052 255 0 0
0.069680 -0.216352 -0.091407 153 0 76
0.154589 0.450839 -0.498441 255 0 0
0.440567 -0.142724 0.515061 153 0 76
0.012530 -0.216352 0.431330 153 0 76
-0.196365 0.389158 -0.462801 255 0 0
0.558077 -0.186459 -0.056626 153 0 76
0.509165 -0.187404 0.668773 153 0 76
0.579488 -0.203118 -0.124390 153 0 76
0.382327 -0.150261 0.364766 0 127 127
-0.099041 0.131232 -0.266880 0 0 255
-0.581357 -0.142724 0.041694 153 0 76
-0.269486 0.501498 -0.480653 0 0 255
-0.549545 0.299287 -0.357763 255 0 0
0.332081 -0.150261 0.309534 0 127 127
0.467598 -0.142725 0.312169 0 127 127
-0.064877 -0.216352 0.306500 153 0 76
-0.078353 0.024136 -0.252099 255 0 0
-0.284051 -0.150261 -0.021253 153 0 76
-0.381564 -0.006178 -0.187547 255 0 0
-0.403163 0.497734 -0.478480 0 0 255
0.473619 -0.142724 0.653323 153 0 76
0.295908 -0.216352 0.344745 153 0 76
0.072740 -0.019954 -0.226650 255 0 0
-0.392894 0.337700 -0.433087 255 0 0
0.076284 0.555582 -0.550647 255 0 0
0.345201 -0.216352 0.435706 153 0 76
-0.171969 -0.142724 0.687590 153 0 76
0.558602 0.024750 -0.252471 255 0 0
0.245487 -0.059501 -0.203824 255 0 0
-0.407223 -0.142724 0.390455 153 0 76
-0.379984 -0.056936 -0.205305 255 0 0
0.248129 0.037098 -0.259581 255 0 0
0.056662 0.574846 -0.516858 255 0 0
0.362323 -0.216352 0.183664 153 0 76
0.000062 0.135218 -0.269182 0 0 255
0.546358 -0.216352 0.018551 153 0 76
0.346709 0.530651 -0.541997 255 0 0
-0.206118 -0.216352 0.150168 153 0 76
-0.307414 -0.216352 0.199913 153 0 76
-0.179809 -0.150261 0.087776 0 127 127
0.153666 0.424116 -0.483012 255 0 0
0.202905 0.486503 -0.471996 0 0 255
-0.335021 0.253476 -0.384473 255 0 0
0.579488 0.172379 -0.332419 255 0 0
0.406361 -0.216352 0.161432 153 0 76
-0.121175 -0.216352 0.393866 153 0 76
0.225353 -0.216352 0.243836 153 0 76
0.218888 0.507039 -0.530816 255 0 0
-0.266223 -0.142724 0.190686 0 127 127
-0.431483 -0.196426 0.635562 153 0 76
0.144605 -0.142724 0.466148 153 0 76
0.017163 -0.216352 0.035373 153 0 76
0.174501 -0.198918 0.626226 153 0 76
0.440873 -0.216352 0.408830 153 0 76
-0.555197 0.015009 -0.246831 255 0 0
-0.401730 -0.216352 0.334727 153 0 76
0.343679 -0.150827 -0.111579 153 0 76
0.504501 0.086055 -0.287861 255 0 0
-0.527454 -0.163288 -0.140284 153 0 76
-0.178925 0.332725 -0.383212 0 0 255
-0.104190 -0.216352 0.358230 153 0 76
-0.537386 -0.172815 -0.106033 153 0 76
0.332962 -0.196229 0.636285 153 0 76
-0.414514 0.025808 -0.206014 0 0 255
0.137909 -0.216352 -0.009483 153 0 76
0.049712 -0.150261 0.440544 153 0 76
-0.140946 -0.142724 0.320336 0 127 127
-0.452526 -0.142724 0.299583 153 0 76
-0.116003 0.028152 -0.207367 0 0 255
-0.147989 0.581578 -0.556799 255 0 0
0.149456 -0.177484 -0.142478 153 0 76
0.105591 0.557613 -0.551227 255 0 0
-0.106983 -0.210701 0.568709 153 0 76
0.045585 0.442378 -0.446520 0 0 255
0.341139 0.371650 -0.405686 0 0 255
-0.059649 0.393737 -0.465456 255 0 0
0.310727 0.001715 -0.239158 255 0 0
-0.239029 -0.145573 -0.045142 0 127 127
-0.541933 -0.142724 0.524399 153 0 76
0.304806 -0.173189 -0.142478 153 0 76
0.323390 -0.216352 0.322943 153 0 76
-0.236254 -0.150261 0.228965 153 0 76
-0.362340 0.505260 -0.482825 0 0 255
0.047473 -0.144497 0.624881 153 76 0
-0.396242 -0.100132 -0.103471 127 0 127
0.180307 -0.216227 -0.118003 153 0 76
-0.238671 -0.187057 0.670048 153 0 76
0.343179 -0.150261 0.184304 153 0 76
0.144534 0.088049 -0.241949 0 0 255
-0.419317 0.597659 -0.530029 255 0 0
0.288368 -0.142724 0.264998 0 127 127
0.320296 0.570755 -0.514496 255 0 0
-0.240122 -0.214688 0.533414 153 0 76
-0.489151 -0.133837 -0.101237 127 0 127
0.510207 -0.150261 0.065637 0 127 127
-0.322349 0.123213 -0.262250 0 0 255
0.311828 -0.125235 -0.099315 127 0 127
-0.455042 0.498200 -0.525736 255 0 0
-0.329931 -0.142724 0.626962 153 0 76
-0.505544 -0.142724 0.401371 153 0 76
-0.000638 0.263014 -0.342965 0 0 255
-0.053606 -0.212097 0.558595 153 0 76
-0.439865 -0.150261 0.401479 0 127 127
0.305048 0.278738 -0.352043 0 0 255
0.512116 -0.029621 -0.167868 255 0 0
0.034543 -0.216352 0.066023 153 0 76
0.134457 0.010213 -0.244063 255 0 0
-0.299906 0.154357 -0.327262 255 0 0
0.505385 0.483394 -0.517264 255 0 0
0.519446 0.209039 -0.358867 255 0 0
0.579488 0.124410 -0.301538 255 0 0
0.579488 -0.101136 -0.111855 127 0 127
0.085102 0.614343 -0.551520 255 0 0
0.225112 -0.183260 0.684026 153 0 76
0.117183 0.210293 -0.359558 255 0 0
0.538108 -0.142724 0.483595 153 0 76
-0.397955 -0.215249 0.525914 153 0 76
0.464227 0.059235 -0.272373 255 0 0
0.456749 -0.142724 0.397774 0 127 127
0.108944 -0.216352 0.369080 153 0 76
0.299417 0.174326 -0.291761 0 0 255
-0.567311 0.382321 -0.405703 255 0 0
-0.130985 -0.080657 -0.191613 255 0 0
-0.180815 0.589522 -0.558540 255 0 0
-0.480627 -0.139628 -0.181321 127 0 127
0.022009 0.616657 -0.547510 255 0 0
0.173405 -0.142724 0.642435 153 0 76
-0.161975 -0.142724 -0.089122 153 0 76
0.358219 -0.150261 -0.031160 0 127 127
-0.395748 0.291102 -0.359181 0 0 255
-0.284463 -0.150261 0.361898 0 127 127
0.018878 -0.150261 0.443345 153 0 76
-0.350609 -0.142724 0.534593 153 0 76
0.576824 -0.142724 0.541064 153 0 76
-0.221896 0.294537 -0.408173 255 0 0
-0.356096 -0.216352 0.232086 153 0 76
-0.193856 -0.011348 -0.179451 255 0 0
-0.380196 0.072793 -0.233141 0 0 255
-0.423912 0.479099 -0.467721 0 0 255
-0.101110 -0.142724 -0.033915 0 127 127
-0.023778 0.534320 -0.499604 0 0 255
0.007940 -0.216352 0.382695 153 0 76
0.514462 -0.142725 0.328542 0 127 127
-0.061504 -0.041170 -0.214404 255 0 0
-0.565272 -0.216107 0.507164 153 0 76
-0.106164 -0.216352 -0.065622 153 0 76
0.031024 -0.150261 0.201633 0 127 127
-0.018078 -0.216352 0.083585 153 0 76
0.399578 0.369948 -0.404703 0 0 255
0.093946 0.407524 -0.426398 0 0 255
0.070462 -0.150261 0.075567 0 127 127
-0.518450 0.298302 -0.363338 0 0 255
0.167894 0.130382 -0.266389 0 0 255
-0.076808 -0.081215 -0.121625 127 0 127
-0.418537 0.091839 -0.244137 0 0 255
-0.360935 0.562880 -0.552622 255 0 0
0.456501 -0.142724 0.478876 153 0 76
0.304090 -0.215230 0.526251 153 0 76
0.206522 0.004947 -0.193970 0 0 255
-0.248110 -0.151859 -0.112924 153 0 76
-0.218515 -0.150261 0.035377 0 127 127
-0.581724 0.178360 -0.332748 255 0 0
0.252525 -0.146265 0.296564 0 127 127
-0.241415 0.458386 -0.455763 0 0 255
-0.382034 -0.153588 -0.115178 127 0 127
0.296685 -0.142724 0.646764 153 0 76
0.273663 -0.150261 0.272556 0 127 127
0.440820 -0.107871 -0.184691 127 0 127
-0.135124 0.556163 -0.550813 255 0 0
-0.486029 0.118930 -0.306814 255 0 0
-0.101048 -0.216352 0.324109 153 0 76
0.366064 -0.216352 0.383915 153 0 76
0.559302 0.273763 -0.343027 255 0 0
-0.009541 -0.054830 -0.206520 255 0 0
-0.491909 0.292042 -0.359724 0 0 255
-0.506376 -0.142724 0.684706 153 0 76
-0.052553 0.109369 -0.301295 255 0 0
0.241096 -0.039500 -0.215368 255 0 0
-0.107434 0.239234 -0.329235 0 0 255
-0.559555 -0.195352 0.368206 153 0 76
-0.544623 -0.185962 0.436120 153 0 76
0.512818 -0.007523 -0.185850 255 0 0
-0.114611 -0.008310 -0.233371 255 0 0
-0.542368 -0.216352 0.227721 153 0 76
-0.175346 -0.216352 0.293159 153 0 76
0.174230 0.241004 -0.377294 255 0 0
-0.003192 0.601967 -0.536100 255 0 0
0.532393 -0.142724 0.644974 153 0 76
-0.317438 -0.142724 0.318093 0 127 127
-0.326041 -0.150261 0.173645 0 127 127
-0.147690 -0.019693 -0.226801 255 0 0
-0.124183 -0.110495 -0.185163 127 0 127
-0.134103 -0.142724 0.351713 0 127 127
0.367303 0.084098 -0.239668 0 0 255
0.398922 -0.142724 -0.033245 153 0 76
-0.581724 -0.193306 0.618547 153 0 76
-0.478328 0.072986 -0.280295 255 0 0
0.164531 -0.142724 0.575424 153 0 76
0.219787 0.447744 -0.496659 255 0 0
0.275265 0.117111 -0.258728 0 0 255
0.418318 -0.142724 0.652602 153 0 76
-0.282433 -0.142724 0.639808 153 0 76
-0.449828 0.176731 -0.340176 255 0 0
0.204514 -0.142724 0.576222 153 0 76
0.387313 -0.216352 0.202068 153 0 76
-0.484390 -0.099999 -0.103526 127 0 127
0.533565 -0.174044 0.037393 153 0 76
-0.096455 0.331261 -0.429382 255 0 0
0.022672 -0.147854 0.328224 0 127 127
0.366916 0.140186 -0.272050 0 0 255
-0.137797 -0.216352 0.071319 153 0 76
0.153279 -0.063505 -0.148305 255 0 0
-0.540156 0.507003 -0.480682 255 0 0
-0.403742 0.558216 -0.507256 255 0 0
0.295186 -0.148346 0.081509 0 127 127
0.417069 -0.216352 0.098062 153 0 76
-0.405331 0.358942 -0.398349 0 0 255
0.395911 -0.150261 0.128105 0 127 127
0.053808 -0.183726 0.682311 153 0 76
-0.531801 -0.216352 -0.082941 153 0 76
-0.103281 -0.186008 0.673910 153 0 76
-0.120518 0.399887 -0.421988 0 0 255
-0.528461 0.418460 -0.479702 255 0 0
0.549598 0.150150 -0.324870 255 0 0
-0.581724 0.396485 -0.466093 255 0 0
-0.348571 -0.039414 -0.162214 255 0 0
-0.219730 0.337606 -0.433036 255 0 0
-0.482487 0.164226 -0.285930 0 0 255
0.374207 0.009392 -0.196536 0 0 255
-0.175135 -0.146173 0.410381 153 0 76
-0.357147 -0.142724 -0.044640 0 127 127
-0.581724 -0.194751 0.229143 153 0 76
-0.031293 0.596108 -0.529133 0 255 0
-0.044010 0.291197 -0.406255 255 0 0
-0.494116 -0.176919 -0.142478 153 0 76
-0.071436 0.361340 -0.446750 255 0 0
0.340968 -0.142724 0.034843 0 127 127
0.285558 -0.142724 0.348896 0 127 127
-0.507365 0.006360 -0.241838 255 0 0
-0.297687 -0.142724 0.587888 153 0 76
-0.360824 -0.150261 0.314732 0 127 127
0.439325 -0.162340 -0.133087 153 0 76
0.064784 -0.149121 -0.174743 127 0 127
0.165074 -0.015513 -0.176013 255 0 0
-0.382692 -0.216352 0.300332 153 0 76
-0.030550 -0.063876 -0.148091 255 0 0
0.417933 -0.042614 -0.213571 255 0 0
-0.526856 0.211346 -0.313134 255 0 0
0.562010 -0.150261 0.446528 153 0 76
0.179997 0.522069 -0.538285 255 0 0
0.157159 -0.142724 0.612224 153 0 76
-0.109711 0.274906 -0.349831 0 0 255
-0.444240 -0.152108 -0.113249 127 0 127
0.192986 -0.215865 0.514439 153 0 76
-0.034392 0.270611 -0.347351 0 0 255
-0.111449 -0.087091 -0.113464 127 0 127
0.212923 -0.148176 -0.175468 127 0 127
-0.429486 -0.216352 0.474768 153 0 76
-0.421798 -0.216352 -0.059032 153 0 76
-0.299225 -0.214544 0.535275 153 0 76
0.217576 -0.216352 -0.022932 153 0 76
-0.429482 0.410117 -0.474886 255 0 0
0.456510 0.191374 -0.301603 0 0 255
-0.486271 -0.143127 -0.010354 0 127 127
0.145555 0.039489 -0.213912 0 0 255
0.479881 0.224844 -0.367989 255 0 0
-0.066951 -0.145025 0.674997 153 0 76
-0.339384 0.453118 -0.452721 0 0 255
-0.461567 -0.142724 0.252888 153 0 76
-0.142724 -0.215346 0.524148 153 0 76
0.071676 0.309368 -0.369727 0 0 255
0.233581 0.192631 -0.302329 0 0 255
-0.380716 -0.216352 -0.019333 153 0 76
-0.232348 -0.142724 0.177004 153 0 76
-0.371051 -0.142724 0.017343 0 127 127
0.173406 -0.142724 0.343968 0 127 127
-0.526587 -0.142724 0.640045 153 0 76
-0.335135 0.456173 -0.501481 255 0 0
0.401749 0.245982 -0.380186 255 0 0
-0.430372 -0.142724 0.381659 0 127 127
0.414895 -0.199768 0.622952 153 0 76
-0.581724 -0.178031 -0.078290 153 0 76
-0.127444 -0.216352 -0.023458 153 0 76
0.210678 -0.159616 -0.125166 153 0 76
-0.257274 -0.150261 0.302676 0 127 127
-0.521969 -0.058895 -0.204174 255 0 0
0.507871 0.415791 -0.431170 255 0 0
0.317498 -0.216352 -0.002506 153 0 76
-0.004910 -0.142724 0.395883 0 127 127
-0.406853 -0.216352 0.108538 153 0 76
0.108981 -0.216352 0.258030 153 0 76
0.579488 -0.164382 0.174851 153 0 76
-0.579074 -0.142724 0.368848 153 0 76
0.210110 0.055183 -0.270019 255 0 0
-0.317403 0.245146 -0.332649 0 0 255
0.019566 -0.216352 0.274527 153 0 76
-0.531850 -0.142724 0.565557 153 0 76
0.237533 -0.216352 0.167636 153 0 76
0.142756 -0.142724 0.071821 0 127 127
-0.146070 -0.216352 0.324848 153 0 76
-0.268041 -0.216352 0.145753 153 0 76
0.320004 0.549994 -0.505588 255 0 0
0.230181 -0.216352 0.116359 153 0 76
-0.249299 -0.052017 -0.154938 255 0 0
0.351365 0.459100 -0.456175 0 0 255
0.065868 0.304276 -0.413815 255 0 0
0.039595 0.115148 -0.257594 0 0 255
0.350748 -0.142724 -0.014005 0 127 127
0.044829 0.600357 -0.531586 255 0 0
-0.581724 -0.188070 0.327539 153 0 76
0.567583 -0.186459 -0.041734 153 0 76
0.536147 0.560875 -0.552104 255 0 0
-0.182291 0.457291 -0.455131 0 0 255
-0.502901 0.089286 -0.289703 255 0 0
-0.142292 -0.150261 0.044850 0 127 127
0.131698 -0.216352 0.018526 153 0 76
0.297707 0.161034 -0.331133 255 0 0
-0.159673 -0.216352 -0.100789 153 0 76
0.188464 -0.170474 0.697727 153 0 76
0.111603 -0.147792 -0.067646 0 127 127
-0.256746 -0.216352 -0.027050 153 0 76
0.304154 -0.182209 0.687896 153 0 76
0.449748 0.194950 -0.350727 255 0 0
0.485959 -0.044447 -0.159308 255 0 0
0.579488 0.013461 -0.225062 255 0 0
0.577622 -0.142724 0.016242 153 0 76
0.253826 -0.150261 0.260967 153 0 76
0.353427 0.215356 -0.315449 0 0 255
-0.531754 -0.174495 0.623351 153 0 76
0.169678 -0.216352 0.372568 153 0 76
-0.545154 0.604212 -0.561760 255 0 0
0.412611 0.225289 -0.321184 0 0 255
-0.411390 0.265500 -0.391413 255 0 0
0.538587 -0.216352 0.228756 153 0 76
0.470650 0.578193 -0.556114 255 0 0
0.490333 -0.216352 -0.021626 153 0 76
0.579488 0.264669 -0.378261 255 0 0
-0.581724 -0.177284 0.648271 153 0 76
-0.432304 -0.060640 -0.149960 255 0 0
0.093723 -0.216352 -0.054194 153 0 76
0.109656 -0.142724 0.369736 0 127 127
0.246471 -0.211176 0.565428 153 0 76
-0.369443 0.568111 -0.512969 255 0 0
0.579118 -0.216352 0.263945 153 0 76
-0.207404 -0.150261 0.166599 0 127 127
-0.303677 -0.156872 -0.165498 127 0 127
0.106900 -0.050527 -0.155798 255 0 0
-0.379233 -0.190962 0.655673 153 0 76
0.478944 -0.142724 0.588331 153 0 76
0.222459 -0.094475 -0.106965 127 0 127
0.264867 -0.126386 -0.099466 127 0 127
-0.165314 0.182964 -0.343774 255 0 0
-0.027927 0.006955 -0.195129 0 0 255
-0.382752 -0.150261 0.269093 153 0 76
0.194975 0.319691 -0.375687 0 0 255
-0.041730 0.586521 -0.557883 255 0 0
0.579488 0.259302 -0.354755 255 0 0
-0.466997 0.288472 -0.357663 0 0 255
0.560340 -0.146851 -0.108471 153 0 76
0.069345 0.359114 -0.398448 0 0 255
-0.249270 0.618142 -0.544939 255 0 0
-0.346425 -0.150261 0.388925 0 127 127
0.015880 -0.216352 0.196270 153 0 76
-0.076190 0.054831 -0.222770 0 0 255
0.533078 -0.142724 0.568770 153 0 76
-0.380023 0.359121 -0.445451 255 0 0
-0.173004 -0.216352 0.339952 153 0 76
0.504404 -0.150261 0.301800 0 127 127
0.112264 0.147762 -0.276424 0 0 255
0.342289 0.471360 -0.510304 255 0 0
-0.257439 -0.142724 0.338619 153 0 76
-0.323592 -0.181485 0.690561 153 0 76
0.480421 -0.216352 -0.082737 153 0 76
-0.287410 -0.142724 0.557314 153 0 76
0.118048 -0.143591 0.452371 153 0 76
-0.557501 -0.200850 0.020882 153 0 76
0.375010 0.360876 -0.399466 0 0 255
-0.486192 0.431320 -0.487124 255 0 0
0.482727 -0.156050 0.697727 153 0 76
-0.320334 0.588054 -0.524483 255 0 0
-0.543600 -0.213155 0.549912 153 0 76
-0.312711 -0.142724 0.526733 153 0 76
0.074023 -0.136226 -0.102226 127 0 127
-0.062622 -0.216352 0.012972 153 0 76
-0.356639 -0.142724 0.461532 153 0 76
0.003684 -0.150261 0.181537 153 0 76
0.270028 0.619252 -0.542495 255 0 0
0.029682 -0.055319 -0.153031 255 0 0
-0.416395 0.350113 -0.440252 255 0 0
0.311962 0.512387 -0.533631 255 0 0
-0.565822 -0.177892 -0.106526 153 0 76
-0.197897 0.140369 -0.319188 255 0 0
0.326240 -0.142724 0.185089 153 0 76
-0.024276 -0.216352 0.295184 153 0 76
0.193481 -0.150261 0.166134 0 127 127
-0.119952 0.494847 -0.476814 0 0 255
0.016777 0.539822 -0.502780 255 0 0
-0.349761 0.142979 -0.273662 0 0 255
-0.581724 -0.133179 -0.127264 127 0 127
0.219570 -0.147505 0.160391 153 0 76
-0.248802 0.421712 -0.481592 255 0 0
-0.198011 0.454035 -0.500258 255 0 0
0.097165 0.206101 -0.310106 0 0 255
0.112582 -0.142724 0.518005 153 0 76
-0.581724 -0.193400 0.034416 153 0 76
0.312046 0.319135 -0.375366 0 0 255
-0.537217 -0.199100 0.625525 153 0 76
-0.010458 0.364077 -0.401313 0 0 255
0.446368 0.442191 -0.446413 0 0 255
0.063538 -0.216352 0.024821 153 0 76
-0.322890 -0.150261 -0.028244 0 127 127
0.204050 -0.209339 0.577444 153 0 76
0.048149 -0.154806 -0.116764 153 0 76
-0.183600 -0.142724 0.511531 153 0 76
0.414533 -0.216352 0.409138 153 0 76
-0.475459 -0.022134 -0.172191 255 0 0
-0.212179 0.208581 -0.358560 255 0 0
-0.581724 -0.023085 -0.190004 255 0 0
0.385321 -0.142724 -0.083647 153 0 76
-0.037377 0.612545 -0.554632 255 0 0
-0.412770 -0.216352 0.084759 153 0 76
-0.199765 -0.216352 0.061291 153 0 76
-0.581724 -0.160694 0.368065 153 0 76
0.445885 -0.216352 0.082910 153 0 76
0.263502 -0.216352 0.250256 153 0 76
-0.339629 -0.216352 0.289783 153 0 76
0.365594 -0.213802 0.543421 153 0 76
0.504823 -0.150261 0.185095 153 0 76
-0.485903 -0.043895 -0.212832 255 0 0
-0.153834 0.311056 -0.370702 0 0 255
0.229272 -0.142724 0.645308 153 0 76
0.096527 0.573486 -0.516072 255 0 0
0.071275 -0.196649 0.634738 153 0 76
0.494990 -0.150261 0.125949 0 127 127
0.011740 -0.002774 -0.189512 255 0 0
-0.144315 -0.144497 0.628562 76 0 153
-0.321862 -0.216352 0.398068 153 0 76
-0.184156 0.522745 -0.538598 255 0 0
-0.040756 -0.143140 0.279250 0 127 127
-0.581724 0.527325 -0.526886 255 0 0
0.195394 -0.098591 -0.104109 127 0 127
0.278980 0.267164 -0.345361 0 0 255
0.188851 0.448073 -0.496846 255 0 0
-0.421167 0.329997 -0.381637 0 0 255
0.356749 -0.214722 -0.125074 153 0 76
0.355377 -0.150261 0.360741 153 0 76
0.376446 0.345080 -0.437398 255 0 0
0.232144 0.060752 -0.226189 0 0 255
0.421265 -0.011815 -0.231349 255 0 0
0.115116 0.479872 -0.468167 0 0 255
0.579488 0.160486 -0.297840 255 0 0
-0.145473 -0.142724 0.007795 153 0 76
0.311116 -0.216352 -0.021497 153 0 76
0.416615 -0.142725 0.319879 0 127 127
-0.109934 -0.118335 -0.098761 127 0 127
-0.447282 -0.200090 0.621715 153 0 76
0.410027 -0.142724 0.576363 153 0 76
-0.485133 0.063705 -0.227894 0 0 255
-0.094484 -0.142724 -0.073447 153 0 76
-0.500572 0.393400 -0.465237 255 0 0
0.281530 0.135823 -0.316576 255 0 0
-0.163773 0.343097 -0.436210 255 0 0
-0.407634 -0.142724 0.131515 153 0 76
-0.389043 -0.216352 0.070254 153 0 76
-0.308093 0.348116 -0.439099 255 0 0
-0.375391 -0.142724 -0.002249 0 127 127
0.329613 -0.104184 -0.101793 127 0 127
-0.010266 0.365849 -0.449358 255 0 0
0.455128 -0.096050 -0.105757 127 0 127
0.531327 0.021607 -0.202780 255 0 0
-0.242600 0.207352 -0.310828 0 0 255
0.358685 0.129124 -0.312715 255 0 0
0.079600 -0.142724 0.384275 0 127 127
0.449622 0.391640 -0.464286 255 0 0
-0.481483 -0.216352 0.350427 153 0 76
0.282213 -0.216352 0.388893 153 0 76
-0.158290 0.530063 -0.497145 0 0 255
0.487868 -0.180207 -0.142478 153 0 76
0.579488 0.553750 -0.524553 255 0 0
0.493248 0.537191 -0.544560 255 0 0
-0.164318 -0.216352 0.358338 153 0 76
0.208214 -0.142724 0.642806 153 0 76
-0.177472 0.057501 -0.271357 255 0 0
0.579488 -0.156898 0.615682 153 0 76
0.239186 0.170296 -0.336476 255 0 0
-0.273597 -0.216352 0.453564 153 0 76
-0.546802 0.389467 -0.462966 255 0 0
-0.045354 0.169724 -0.336132 255 0 0
-0.288660 0.057943 -0.224567 0 0 255
-0.121214 -0.216352 0.142437 153 0 76
-0.342093 -0.107784 -0.184654 127 0 127
0.567853 -0.216352 0.082851 153 0 76
0.114716 -0.150261 -0.039125 0 127 127
-0.192653 0.362266 -0.447275 255 0 0
-0.350390 -0.196299 0.636030 153 0 76
-0.540136 -0.207177 0.589673 153 0 76
-0.280512 -0.216352 0.175142 153 0 76
0.353145 0.173188 -0.338155 255 0 0
0.264272 -0.216352 0.098567 153 0 76
-0.262051 0.383135 -0.412317 0 0 255
0.032695 -0.020454 -0.173161 255 0 0
0.391670 0.326631 -0.426749 255 0 0
-0.226531 -0.150261 0.103636 153 0 76
-0.136738 -0.144497 0.536847 76 0 153
0.579488 -0.144456 0.243013 153 0 76
-0.221723 -0.216352 0.031857 153 0 76
0.207615 -0.150261 0.397941 0 127 127
0.507008 0.331892 -0.429795 255 0 0
0.572094 0.007107 -0.242285 255 0 0
-0.060579 0.160381 -0.330739 255 0 0
-0.533693 0.520565 -0.537590 255 0 0
-0.360612 0.385513 -0.460684 255 0 0
-0.196084 -0.216352 0.471874 153 0 76
-0.564570 -0.216352 0.059708 153 0 76
0.493374 -0.150261 0.440761 153 0 76
0.161251 0.542930 -0.504574 0 0 255
-0.107027 -0.145447 0.244307 0 127 127
-0.316801 -0.066536 -0.146555 255 0 0
-0.296241 0.609254 -0.560333 255 0 0
0.090948 -0.073386 -0.195809 255 0 0
-0.179748 -0.216352 0.016121 153 0 76
-0.248102 -0.216352 0.477180 153 0 76
-0.029219 0.482195 -0.469509 0 0 255
-0.392751 0.466111 -0.507214 255 0 0
-0.004095 -0.084745 -0.189253 127 0 127
0.469767 -0.216352 -0.053824 153 0 76
-0.439282 -0.150261 0.143390 0 127 127
0.136073 -0.150261 0.188828 0 127 127
0.227228 0.594350 -0.559624 255 0 0
-0.453985 -0.150261 0.048506 0 127 127
0.129839 -0.142724 0.680721 153 0 76
-0.308373 0.616564 -0.547671 255 0 0
0.463717 -0.206207 0.594773 153 0 76
-0.056129 -0.142724 0.353610 0 127 127
-0.093568 0.354122 -0.395566 0 0 255
0.390035 -0.003923 -0.235903 255 0 0
-0.406948 -0.216352 0.437131 153 0 76
0.579488 -0.208511 0.554401 153 0 76
-0.563752 0.011736 -0.191746 255 0 0
-0.163311 0.500946 -0.480335 0 0 255
-0.170764 0.321782 -0.423904 255 0 0
0.451119 0.570996 -0.554496 255 0 0
0.307593 -0.150261 0.321946 0 127 127
-0.216748 -0.036405 -0.163951 255 0 0
-0.228242 -0.216352 0.090853 153 0 76
0.579488 -0.077613 -0.169909 255 0 0
-0.360299 -0.185279 0.676593 153 0 76
-0.170672 0.440388 -0.445372 0 0 255
0.255205 -0.142724 0.025212 0 127 127
0.133051 -0.150261 0.400282 0 127 127
0.579488 -0.143995 0.061023 153 0 76
-0.233218 0.043716 -0.263401 255 0 0
0.122899 0.402087 -0.470291 255 0 0
-0.291019 0.476913 -0.466460 0 0 255
-0.396442 -0.216352 0.370954 153 0 76
0.015926 0.144744 -0.321713 255 0 0
0.289561 0.398004 -0.420901 0 0 255
-0.581724 -0.193229 0.410198 153 0 76
-0.332085 -0.216352 0.096019 153 0 76
-0.418333 -0.142724 0.350994 153 0 76
-0.474324 0.206684 -0.357465 255 0 0
-0.253092 -0.150261 -0.010866 153 0 76
-0.533839 -0.160234 -0.015431 153 0 76
-0.267226 -0.142724 0.692956 153 0 76
0.272387 -0.216352 0.230349 153 0 76
-0.367425 -0.216352 0.158561 153 0 76
-0.007784 0.424505 -0.483224 255 0 0
-0.093284 0.179753 -0.341920 255 0 0
0.393776 -0.211721 -0.130924 153 0 76
-0.097181 -0.142724 0.303003 0 127 127
0.157120 0.569493 -0.554151 255 0 0
-0.581724 -0.180277 0.194655 153 0 76
0.460979 -0.150261 0.379184 0 127 127
-0.401019 -0.216352 0.276044 153 0 76
-0.205850 0.595769 -0.528937 255 0 0
-0.561220 -0.096526 -0.182453 127 0 127
0.301194 -0.150261 0.142262 153 0 76
-0.058560 -0.216352 0.175301 153 0 76
0.366518 -0.142724 0.613255 153 0 76
0.449209 -0.216352 0.338279 153 0 76
0.321250 0.041048 -0.214813 0 0 255
-0.369663 -0.216352 0.063811 153 0 76
0.240773 0.089126 -0.242570 0 0 255
0.068298 0.449267 -0.450498 0 0 255
0.494207 0.447038 -0.449211 0 0 255
-0.581724 -0.001766 -0.203612 255 0 0
0.249979 -0.216352 0.192589 153 0 76
0.145052 -0.084739 -0.189257 127 0 127
0.302855 -0.142724 -0.028556 0 127 127
-0.539193 -0.173548 0.465676 153 0 76
-0.411001 -0.143503 0.412141 0 127 127
-0.114977 -0.207386 0.588571 153 0 76
0.343864 0.141072 -0.319612 255 0 0
-0.183525 -0.193881 0.644929 153 0 76
-0.254237 -0.216352 0.343820 153 0 76
0.521244 0.423403 -0.482630 255 0 0
-0.328905 -0.150261 -0.064467 0 127 127
-0.464377 -0.131234 -0.184798 127 0 127
0.042700 0.194023 -0.350159 255 0 0
0.579488 0.203386 -0.305473 255 0 0
0.320479 -0.150261 0.440756 153 0 76
0.100473 0.156284 -0.328375 255 0 0
-0.405980 -0.142724 0.459705 153 0 76
0.216506 -0.142724 0.287561 0 127 127
0.142169 -0.150261 0.422248 153 0 76
-0.076553 -0.216352 -0.066375 153 0 76
0.413899 0.609260 -0.560323 255 0 0
0.318146 -0.157622 -0.164521 127 0 127
-0.302452 -0.150261 0.146817 153 0 76
-0.056248 0.608855 -0.561024 255 0 0
0.446789 -0.142724 0.593644 153 0 76
-0.322826 -0.142724 0.050576 0 127 127
0.095211 -0.142724 0.322801 0 127 127
0.346376 -0.150261 0.344928 153 0 76
0.234711 -0.025034 -0.223718 255 0 0
0.505526 0.009676 -0.196700 0 0 255
-0.377027 -0.045297 -0.158817 255 0 0
-0.516072 -0.149093 0.249342 0 127 127
-0.249038 0.319769 -0.422737 255 0 0
-0.581724 0.387535 -0.449821 255 0 0
-0.358446 -0.150261 0.246026 153 0 76
-0.181929 -0.150261 0.192738 153 0 76
-0.269687 0.444996 -0.495033 255 0 0
-0.401559 -0.147645 -0.067646 153 0 76
-0.087796 -0.160623 -0.157359 127 0 127
0.038249 -0.117305 -0.186060 127 0 127
-0.243585 -0.142724 0.596782 153 0 76
0.009799 -0.144497 0.569795 76 0 153
0.544918 -0.216352 0.377161 153 0 76
0.115810 0.510972 -0.486123 0 0 255
-0.125474 -0.216352 -0.112626 153 0 76
-0.252067 -0.216352 0.437999 153 0 76
-0.260658 0.042025 -0.215376 0 0 255
0.419463 -0.190684 0.656699 153 0 76
-0.045321 -0.121195 -0.098783 127 0 127
-0.477416 -0.216352 0.141574 153 0 76
0.183598 -0.215034 0.528954 153 0 76
-0.283956 -0.216352 0.135453 153 0 76
0.474157 -0.142724 0.212893 0 127 127
-0.216946 -0.142724 0.204516 0 127 127
-0.455228 0.594485 -0.528196 255 0 0
0.416947 0.452998 -0.499708 255 0 0
-0.358372 0.005580 -0.194335 0 0 255
0.017426 -0.142724 0.232155 0 127 127
0.573714 -0.216352 0.049736 153 0 76
0.307037 -0.189661 0.660465 153 0 76
0.448830 -0.153333 -0.114845 127 0 127
0.256135 0.206639 -0.310416 0 0 255
0.474798 0.264083 -0.390643 255 0 0
-0.375299 -0.135187 -0.101796 127 0 127
-0.002608 -0.142724 -0.084851 153 0 76
-0.561625 -0.216352 0.117392 153 0 76
-0.329051 0.152933 -0.326440 255 0 0
0.579488 -0.158211 0.213740 153 0 76
0.118712 -0.216352 0.063675 153 0 76
0.578058 -0.161821 -0.064705 153 0 76
0.534505 -0.142724 0.191611 0 127 127
-0.363936 0.307533 -0.415675 255 0 0
-0.025355 -0.216352 -0.107962 153 0 76
0.109927 0.332987 -0.430395 255 0 0
-0.347589 0.566326 -0.511938 255 0 0
-0.449682 -0.150261 0.179055 0 127 127
-0.457042 -0.216352 0.178175 153 0 76
0.476899 0.240833 -0.330159 0 0 255
0.194187 -0.142724 0.656410 153 0 76
0.242775 -0.142724 -0.075629 153 0 76
-0.456691 -0.216352 0.009382 153 0 76
0.085042 -0.146631 0.178295 153 0 76
0.248903 -0.216352 0.017902 153 0 76
0.366973 -0.150261 0.437691 153 0 76
-0.372070 0.197362 -0.352085 255 0 0
-0.144372 0.198438 -0.305681 0 0 255
-0.581724 -0.203294 0.530360 153 0 76
0.282730 0.386472 -0.461289 255 0 0
-0.581724 -0.215387 0.199001 153 0 76
0.113001 -0.142724 0.687323 153 0 76
0.031240 0.586365 -0.557861 255 0 0
-0.474575 -0.142724 0.280276 0 127 127
0.267641 0.130510 -0.266463 0 0 255
0.176271 -0.142724 0.402667 0 127 127
-0.057368 0.154440 -0.280280 0 0 255
0.072592 -0.206783 0.591746 153 0 76
0.057379 0.202773 -0.308185 0 0 255
0.101036 -0.216352 0.088684 153 0 76
-0.151505 -0.216352 0.256811 153 0 76
0.186047 -0.216352 0.249732 153 0 76
-0.042408 -0.216352 0.067627 153 0 76
-0.514943 0.416352 -0.431494 0 0 255
-0.427517 -0.142724 0.607259 153 0 76
0.438030 -0.205223 0.599524 153 0 76
-0.087674 -0.142724 0.349221 153 0 76
0.344329 0.415958 -0.478317 255 0 0
-0.281990 -0.119611 -0.098593 127 0 127
-0.547876 -0.084020 -0.117465 127 0 127
-0.014524 -0.216352 0.270492 153 0 76
0.350037 -0.142779 0.086151 0 127 127
-0.254113 0.428183 -0.438325 0 0 255
-0.355366 -0.142724 0.625178 153 0 76
-0.358081 0.428606 -0.438569 0 0 255
-0.055009 -0.150261 0.143348 153 0 76
0.018653 -0.150261 0.062406 0 127 127
-0.306858 -0.178001 -0.142478 153 0 76
-0.132105 -0.103429 -0.102105 127 0 127
0.537623 0.417370 -0.429038 255 0 0
-0.457462 -0.150261 0.444772 153 0 76
0.501546 -0.150261 0.271194 153 0 76
0.090941 -0.216352 0.342783 153 0 76
-0.515227 0.446677 -0.449003 0 0 255
-0.080706 -0.150261 0.113782 0 127 127
-0.141114 -0.216352 0.445850 153 0 76
0.421106 -0.134741 -0.183345 127 0 127
-0.078985 0.039455 -0.260941 255 0 0
-0.145204 0.298998 -0.410751 255 0 0
0.105626 -0.040065 -0.215042 255 0 0
0.575752 0.348136 -0.385966 255 0 0
0.087088 0.332447 -0.430082 255 0 0
0.142745 0.307044 -0.415420 255 0 0
0.159856 0.481569 -0.516183 255 0 0
0.044700 -0.150261 0.372691 153 0 76
-0.125183 0.192402 -0.349221 255 0 0
-0.531880 -0.142724 0.685213 153 0 76
0.245641 -0.145122 -0.033858 0 127 127
0.520696 -0.214699 0.533276 153 0 76
-0.085934 -0.216352 0.163500 153 0 76
0.346992 -0.216352 -0.081789 153 0 76
0.529448 -0.142724 0.696898 153 0 76
0.451719 0.037058 -0.212509 0 0 255
-0.003672 0.396942 -0.467311 255 0 0
0.401999 -0.067147 -0.199410 255 0 0
-0.395757 0.115907 -0.258032 0 0 255
0.378749 -0.082180 -0.119864 127 0 127
0.107016 0.231284 -0.324646 0 0 255
0.564732 0.089261 -0.289716 255 0 0
-0.308218 -0.216352 0.330897 153 0 76
-0.503096 -0.216352 0.180674 153 0 76
0.569432 0.391062 -0.463962 255 0 0
0.566611 -0.174044 0.041044 153 0 76
-0.565701 0.072247 -0.226681 255 0 0
0.380655 0.074741 -0.234265 0 0 255
0.048668 -0.213232 0.549134 153 0 76
-0.529895 -0.142724 -0.092915 153 0 76
0.323007 -0.216352 0.063092 153 0 76
-0.421970 -0.150261 0.035739 0 127 127
-0.197024 -0.142724 0.224933 0 127 127
0.083248 0.491663 -0.522005 255 0 0
-0.203760 -0.142724 0.609136 153 0 76
0.454690 -0.142724 0.071819 153 0 76
-0.231677 0.366733 -0.402847 0 0 255
0.135813 0.152431 -0.326154 255 0 0
-0.347248 -0.216352 0.132815 153 0 76
0.564480 0.180738 -0.342531 255 0 0
-0.486209 0.206759 -0.310486 0 0 255
-0.122165 -0.216352 0.306343 153 0 76
-0.561740 0.048439 -0.266127 255 0 0
-0.045670 -0.144497 0.483082 76 0 153
0.058507 0.369957 -0.451736 255 0 0
0.579488 -0.195930 -0.069635 153 0 76
-0.033074 -0.130143 -0.184995 127 0 127
-0.347887 -0.096808 -0.105175 127 0 127
-0.001332 -0.035225 -0.217836 255 0 0
-0.469786 0.094744 -0.292854 255 0 0
0.218365 -0.216352 0.209860 153 0 76
0.547669 0.183395 -0.290853 255 0 0
-0.271323 -0.150261 0.030621 153 0 76
-0.126342 -0.215907 0.513166 153 0 76
0.307450 -0.216352 -0.102621 153 0 76
-0.497052 -0.150261 0.215209 153 0 76
0.072311 -0.142724 0.255963 0 127 127
-0.529881 0.355103 -0.396132 255 0 0
0.349178 -0.150261 0.376715 153 0 76
0.201657 -0.142724 0.091987 0 127 127
0.253556 0.161034 -0.331130 255 0 0
-0.112341 0.039783 -0.261130 255 0 0
-0.333412 0.482915 -0.516921 255 0 0
-0.580691 0.213621 -0.361469 255 0 0
0.149941 -0.216352 0.340562 153 0 76
0.559329 -0.152849 -0.170742 127 0 127
0.287677 -0.145675 0.165426 0 127 127
0.124395 -0.068875 -0.145205 127 0 127
0.427732 0.276477 -0.350738 0 0 255
-0.529877 -0.158601 -0.122716 153 0 76
0.276394 0.196527 -0.304578 0 0 255
0.161478 -0.078191 -0.128924 127 0 127
-0.366445 0.257693 -0.386907 255 0 0
-0.204319 -0.212858 0.552360 153 0 76
0.153071 0.201422 -0.354440 255 0 0
-0.289358 -0.038637 -0.215867 255 0 0
-0.547358 -0.168009 0.607005 153 0 76
0.041782 -0.003002 -0.236435 255 0 0
-0.049279 -0.216352 0.275171 153 0 76
-0.163611 -0.216352 0.193060 153 0 76
0.147132 0.252321 -0.383826 255 0 0
-0.563347 -0.216352 -0.007229 153 0 76
-0.581724 0.311778 -0.409660 255 0 0
-0.023506 -0.142724 0.409154 0 127 127
-0.328972 -0.216352 0.259476 153 0 76
0.469881 -0.216352 0.363198 153 0 76
0.378458 -0.142725 0.269653 153 0 76
0.579488 0.066437 -0.240144 255 0 0
-0.280920 -0.216352 0.361094 153 0 76
0.436475 -0.216352 -0.115072 153 0 76
-0.471146 -0.142724 0.686036 153 0 76
0.042244 -0.216352 0.301988 153 0 76
0.063520 -0.144497 0.630771 153 0 76
-0.487375 -0.148914 0.250006 153 0 76
0.112854 0.608817 -0.536470 255 0 0
-0.051726 -0.185199 0.676889 153 0 76
-0.100446 0.253012 -0.384205 255 0 0
-0.481372 -0.142724 0.105085 0 127 127
-0.581724 -0.165136 -0.092149 153 0 76
0.307681 -0.216352 -0.081606 153 0 76
-0.021110 -0.150261 -0.027070 0 127 127
-0.551020 -0.036576 -0.163852 255 0 0
-0.024514 -0.142724 0.251832 153 0 76
-0.389363 -0.142724 0.454656 153 0 76
-0.189829 -0.077862 -0.129719 127 0 127
0.578673 -0.142724 0.515965 153 0 76
0.370362 -0.074632 -0.141881 255 0 0
-0.486080 -0.142724 0.127517 0 127 127
-0.254952 -0.017588 -0.174816 255 0 0
-0.177981 -0.216352 0.421460 153 0 76
-0.082112 -0.142724 -0.011212 0 127 127
0.500968 -0.142724 0.646329 153 0 76
0.308475 -0.142724 0.473592 153 0 76
0.467295 0.115756 -0.257945 0 0 255
0.462398 0.495952 -0.524512 255 0 0
-0.219913 -0.142724 0.350993 0 127 127
0.210465 -0.150261 0.189562 0 127 127
0.035819 -0.216352 0.004555 153 0 76
0.230757 0.275762 -0.350325 0 0 255
-0.225862 -0.076078 -0.140266 127 0 127
0.289827 -0.142724 0.298114 0 127 127
-0.278890 -0.142724 -0.006459 0 127 127
0.400058 -0.093110 -0.184425 127 0 127
-0.502778 -0.216352 -0.103878 153 0 76
-0.388247 0.499481 -0.526480 255 0 0
-0.251395 -0.170001 0.697727 153 0 76
0.491884 -0.216352 0.331738 153 0 76
-0.462944 0.388859 -0.462616 255 0 0
-0.394516 0.185682 -0.298317 0 0 255
0.399992 -0.214713 0.533101 153 0 76
0.463220 -0.216352 0.033102 153 0 76
-0.085436 0.427723 -0.485075 255 0 0
0.071708 -0.150261 0.425069 0 127 127
0.384153 -0.204958 0.600768 153 0 76
0.144979 -0.189806 0.659930 153 0 76
-0.104443 0.329250 -0.381206 0 0 255
0.572402 0.570437 -0.554419 255 0 0
0.058564 0.217328 -0.363616 255 0 0
0.245468 -0.191190 -0.142398 153 0 76
0.461791 -0.150261 0.269908 153 0 76
0.349756 -0.142724 0.605628 153 0 76
-0.097749 -0.076835 -0.134522 127 0 127
-0.037202 0.178978 -0.294447 0 0 255
0.511569 0.237816 -0.375480 255 0 0
-0.472206 0.338611 -0.433613 255 0 0
0.525197 -0.186459 0.082764 153 0 76
-0.528822 0.141040 -0.272543 0 0 255
-0.038849 -0.200113 -0.140445 153 0 76
-0.327231 0.553146 -0.549950 255 0 0
0.222541 0.611965 -0.538288 255 0 0
0.055277 -0.216352 0.239098 153 0 76
-0.362060 -0.142724 0.491769 153 0 76
-0.164587 -0.063653 -0.201427 255 0 0
-0.008391 -0.216352 0.357116 153 0 76
-0.473178 0.504019 -0.482109 0 0 255
-0.316311 -0.215979 0.511001 153 0 76
-0.286221 0.217786 -0.363873 255 0 0
0.048072 -0.142724 0.689822 153 0 76
-0.581724 0.421814 -0.449199 255 0 0
-0.112491 -0.161084 0.697727 153 0 76
-0.299834 -0.167029 0.697727 153 0 76
-0.489067 0.317638 -0.374502 0 0 255
0.264565 0.535827 -0.500473 255 0 0
0.197486 -0.216352 -0.015462 153 0 76
-0.490360 0.488406 -0.520078 255 0 0
0.431230 -0.142724 0.234509 0 127 127
0.566164 0.493151 -0.469691 255 0 0
0.464967 0.447550 -0.449506 0 0 255
-0.165209 -0.150261 0.098678 153 0 76
0.579488 0.090000 -0.266264 255 0 0
-0.138250 0.596911 -0.529596 255 0 0
0.328022 0.313494 -0.419158 255 0 0
0.167752 -0.216352 -0.081164 153 0 76
0.393351 0.583386 -0.557243 255 0 0
-0.252547 -0.133422 -0.101065 153 0 76
-0.262289 -0.096526 -0.105391 127 0 127
-0.145048 0.136541 -0.269946 0 0 255
0.227845 -0.142724 0.301550 0 127 127
0.546036 0.330476 -0.375770 255 0 0
-0.464803 0.010196 -0.244052 255 0 0
-0.370475 0.147628 -0.323378 255 0 0
-0.520491 0.605495 -0.534553 255 0 0
-0.027324 -0.205238 0.599453 153 0 76
0.176358 -0.145074 0.449900 153 0 76
0.464859 -0.142724 0.529542 153 0 76
0.034546 -0.212391 -0.129922 153 0 76
-0.165132 0.399721 -0.421893 0 0 255
-0.221154 0.433337 -0.441301 0 0 255
0.545116 -0.205712 0.597228 153 0 76
-0.515759 -0.216352 -0.034185 153 0 76
-0.246547 0.565102 -0.553189 255 0 0
-0.359653 -0.210187 0.572261 153 0 76
0.378507 -0.150261 0.069406 0 127 127
0.451350 -0.203042 -0.139000 153 0 76
-0.503377 -0.142724 0.298545 153 0 76
0.352162 0.605123 -0.534338 255 0 0
0.338934 -0.216352 0.091379 153 0 76
-0.163243 -0.216352 0.073257 153 0 76
-0.010697 -0.216352 0.133267 153 0 76
-0.039311 -0.145025 0.655017 76 0 153
-0.090098 -0.216352 0.011668 153 0 76
-0.437242 -0.216352 0.243965 153 0 76
0.579488 -0.144025 0.367474 153 0 76
-0.395769 -0.150261 0.168079 153 0 76
0.404730 -0.142724 0.624514 153 0 76
-0.131473 -0.142770 0.412141 0 127 127
0.092873 -0.216352 0.071586 153 0 76
0.570491 0.355888 -0.443654 255 0 0
-0.334473 -0.081134 -0.191338 255 0 0
0.108492 -0.142724 -0.085911 153 0 76
-0.502975 -0.142724 0.576900 153 0 76
-0.581724 0.498643 -0.488701 255 0 0
-0.489578 -0.216352 0.122676 153 0 76
0.001692 -0.150261 -0.028151 0 127 127
-0.071563 -0.144497 0.601102 76 0 153
-0.216688 -0.142724 0.574629 153 0 76
-0.164969 0.392967 -0.465003 255 0 0
0.510962 0.348132 -0.392108 0 0 255
-0.128795 -0.145025 0.665184 153 0 76
-0.212060 0.019456 -0.249398 255 0 0
-0.337501 -0.142724 0.611783 153 0 76
-0.323162 0.064867 -0.275609 255 0 0
0.138456 -0.163192 -0.145399 127 0 127
0.107326 -0.216352 0.126502 153 0 76
-0.552355 -0.216352 0.430813 153 0 76
0.517472 -0.216352 -0.009201 153 0 76
0.384070 -0.216352 0.142746 153 0 76
-0.509002 -0.216352 0.027299 153 0 76
0.537169 -0.216352 0.482709 153 0 76
-0.468046 -0.216352 -0.110326 153 0 76
-0.345212 0.067290 -0.229963 0 0 255
-0.480668 -0.046157 -0.158321 255 0 0
-0.124371 0.390166 -0.463389 255 0 0
0.579488 -0.145180 -0.132048 127 0 127
0.205761 0.256223 -0.339044 0 0 255
0.221904 0.305649 -0.414621 255 0 0
0.224437 -0.064827 -0.147542 255 0 0
0.429153 -0.216352 -0.010918 153 0 76
-0.202889 -0.105322 -0.101321 127 0 127
-0.169554 -0.148100 -0.109429 127 0 127
0.424331 0.127862 -0.311992 255 0 0
0.235579 -0.193583 0.646027 153 0 76
0.352804 -0.216352 0.127955 153 0 76
-0.296585 0.040037 -0.261277 255 0 0
-0.167921 -0.150261 0.295886 153 0 76
0.548041 -0.150261 0.284679 153 0 76
0.399840 -0.142724 0.244254 153 0 76
-0.502061 -0.142724 0.630989 153 0 76
0.479107 -0.074014 -0.195447 255 0 0
0.558901 0.536778 -0.494879 255 0 0
-0.237719 0.166542 -0.287267 0 0 255
-0.250397 -0.150261 0.076460 0 127 127
-0.463141 -0.142724 0.559492 153 0 76
0.108246 -0.024417 -0.224074 255 0 0
-0.416477 -0.087300 -0.113190 127 0 127
-0.490894 -0.216296 0.497064 153 0 76
-0.063188 0.217275 -0.363578 255 0 0
0.252728 0.116298 -0.305302 255 0 0
-0.078777 -0.216352 -0.090791 153 0 76
-0.388709 -0.216352 0.245772 153 0 76
0.579488 -0.178521 0.525697 153 0 76
0.131191 0.557935 -0.551319 255 0 0
-0.409420 -0.143492 -0.179063 127 0 127
0.520030 0.179821 -0.294933 255 0 0
0.327195 0.294117 -0.360922 0 0 255
-0.035917 0.343601 -0.436511 255 0 0
-0.402821 0.259009 -0.340652 0 0 255
-0.136794 -0.144497 0.584608 76 0 153
-0.414376 0.391245 -0.416999 0 0 255
-0.341826 -0.163456 -0.143393 153 0 76
0.077294 -0.046429 -0.211369 255 0 0
-0.225777 -0.197667 0.630991 153 0 76
0.410770 -0.216352 -0.098420 153 0 76
-0.130525 -0.184202 0.680559 153 0 76
0.286396 -0.048238 -0.210325 255 0 0
0.127264 -0.142724 0.020119 0 127 127
0.297773 0.203800 -0.308777 0 0 255
0.538276 -0.216352 -0.070709 153 0 76
0.269252 -0.150261 0.111097 153 0 76
-0.581724 0.259785 -0.382586 255 0 0
0.541697 -0.143994 0.076474 0 127 127
-0.402431 -0.198915 -0.140859 153 0 76
-0.027721 0.338097 -0.386314 0 0 255
0.293160 -0.150261 0.330649 0 127 127
-0.210829 -0.080843 -0.122523 127 0 127
0.373066 -0.216352 -0.110908 153 0 76
0.579488 -0.053475 -0.183918 255 0 0
0.213634 0.448882 -0.450275 0 0 255
-0.271732 0.218667 -0.317361 0 0 255
-0.275185 -0.142724 -0.085338 153 0 76
0.311704 -0.142724 0.576280 153 0 76
0.557128 -0.216352 0.033713 153 0 76
0.055242 0.422553 -0.435075 0 0 255
0.427190 -0.163910 0.697727 153 0 76
-0.046940 -0.216352 -0.003937 153 0 76
-0.061011 -0.214564 0.535020 153 0 76
0.033954 -0.142724 0.108186 0 127 127
0.457903 -0.216352 -0.022022 153 0 76
-0.337966 0.094767 -0.292867 255 0 0
-0.564227 -0.162608 0.615709 153 0 76
0.005365 0.375653 -0.455020 255 0 0
0.236238 0.010092 -0.243992 255 0 0
-0.050435 -0.216352 -0.087264 153 0 76
0.103529 -0.216352 0.228959 153 0 76
-0.070341 -0.161430 0.697727 153 0 76
0.101849 -0.216352 -0.002494 153 0 76
0.113068 0.419697 -0.433426 0 0 255
0.104215 -0.142724 0.118558 0 127 127
-0.567809 -0.142724 0.007967 153 0 76
0.328850 -0.205338 0.598982 153 0 76
-0.378739 -0.150261 0.311791 0 127 127
0.112212 -0.146578 0.081509 153 0 76
-0.581724 -0.165964 0.110441 153 0 76
-0.078562 0.418435 -0.432697 0 0 255
0.386712 0.509263 -0.485137 0 0 255
-0.303089 -0.142724 0.306901 0 127 127
-0.138291 0.451506 -0.451790 0 0 255
-0.283236 -0.216352 0.057821 153 0 76
0.578356 0.049371 -0.213474 255 0 0
0.318391 -0.142724 0.612349 153 0 76
-0.324398 0.465843 -0.460068 0 0 255
0.579488 -0.193853 0.326876 153 0 76
-0.021516 -0.216352 0.146261 153 0 76
-0.411698 0.423451 -0.482583 255 0 0
-0.133023 0.120352 -0.260599 0 0 255
-0.083726 0.455836 -0.454290 0 0 255
-0.360005 -0.216352 0.121887 153 0 76
0.233836 -0.216352 0.447147 153 0 76
0.404956 -0.142724 0.512886 153 0 76
0.568878 -0.050234 -0.155967 255 0 0
-0.483228 0.511762 -0.533304 255 0 0
0.384195 -0.142724 0.517877 153 0 76
-0.254658 -0.142724 0.211000 0 127 127
0.309100 -0.216352 0.305518 153 0 76
-0.228577 -0.216352 0.317505 153 0 76
-0.566247 0.271213 -0.341555 255 0 0
-0.364478 -0.078201 -0.128901 127 0 127
0.336366 -0.150261 0.116144 153 0 76
-0.432713 -0.147466 0.081509 153 0 76
0.564065 -0.146877 0.330407 153 0 76
-0.206427 0.062450 -0.274213 255 0 0
-0.214674 -0.059490 -0.150623 255 0 0
-0.462625 -0.214155 0.539887 153 0 76
0.223301 0.517994 -0.490178 0 0 255
0.579488 0.536303 -0.532844 255 0 0
-0.181177 -0.097806 -0.181714 127 0 127
0.329011 0.284590 -0.402471 255 0 0
-0.581724 -0.191949 0.357124 153 0 76
0.234221 0.547145 -0.505545 255 0 0
-0.033283 0.226521 -0.321895 0 0 255
0.307134 0.324410 -0.425459 255 0 0
-0.360370 0.126918 -0.264389 0 0 255
0.086274 0.146435 -0.322689 255 0 0
-0.415822 0.073608 -0.233611 0 0 255
0.141230 0.460017 -0.456705 0 0 255
0.127397 0.277943 -0.398617 255 0 0
0.131489 0.452416 -0.499349 255 0 0
0.069130 -0.163090 -0.146174 127 0 127
0.088415 0.030108 -0.208496 0 0 255
0.006424 0.093590 -0.292187 255 0 0
0.247104 -0.142724 0.151965 153 0 76
-0.022458 -0.142724 0.325245 0 127 127
0.437209 -0.216352 0.434888 153 0 76
-0.045611 -0.142724 -0.088995 153 0 76
0.359486 -0.043354 -0.159939 255 0 0
0.174527 0.092907 -0.291793 255 0 0
-0.133801 -0.145999 0.215732 153 0 76
-0.054063 0.078147 -0.283274 255 0 0
0.560588 0.607483 -0.535700 255 0 0
-0.053862 -0.003848 -0.188892 0 0 255
-0.096202 0.111563 -0.302562 255 0 0
0.163716 -0.158765 0.697727 153 0 76
-0.381417 0.056932 -0.271028 255 0 0
0.567870 -0.174044 0.058736 153 0 76
-0.271953 -0.035603 -0.217617 255 0 0
-0.563503 -0.150261 0.082606 153 0 76
-0.345600 -0.081340 -0.121323 127 0 127
-0.347235 -0.142724 -0.031100 0 127 127
-0.091656 -0.216352 0.292403 153 0 76
0.040901 -0.216352 0.220243 153 0 76
-0.581724 -0.207149 -0.117859 153 0 76
-0.565790 -0.130094 -0.099954 127 0 127
0.341290 0.261109 -0.341865 0 0 255
-0.051811 -0.150067 -0.110939 153 0 76
-0.382997 -0.142724 0.606454 153 0 76
0.023547 -0.142724 0.458247 153 0 76
-0.178264 -0.142724 0.544516 76 0 153
-0.397708 -0.188978 0.662979 153 0 76
0.538019 0.113131 -0.303496 255 0 0
0.321583 -0.216352 0.259980 153 0 76
-0.183751 -0.142724 0.208518 0 127 127
0.328282 0.234267 -0.373417 255 0 0
-0.315234 0.181146 -0.342724 255 0 0
-0.038645 -0.150261 0.406885 0 127 127
-0.141834 0.042342 -0.215560 0 0 255
-0.579975 -0.164768 0.288417 153 0 76
0.280081 -0.210948 0.567002 153 0 76
0.566523 -0.216352 0.468927 153 0 76
-0.536885 -0.142724 0.105060 153 0 76
-0.524555 -0.142724 0.406765 0 127 127
0.537826 -0.150261 -0.065625 153 0 76
0.288202 -0.216352 0.469345 153 0 76
0.169197 -0.142724 0.315439 0 127 127
0.331368 0.445319 -0.495268 255 0 0
0.321134 -0.150261 -0.059625 153 0 76
0.550231 -0.216352 0.105989 153 0 76
0.085677 -0.150284 -0.173851 127 0 127
0.100543 -0.134549 -0.183424 127 0 127
-0.191283 -0.216352 0.381231 153 0 76
0.149436 0.335939 -0.432103 255 0 0
-0.316011 -0.150261 0.065512 0 127 127
-0.561628 -0.216352 0.146896 153 0 76
-0.524729 -0.216352 0.108561 153 0 76
-0.428839 -0.142724 -0.087426 153 0 76
-0.076271 -0.144497 0.557863 76 0 153
0.514378 -0.152588 -0.171082 127 0 127
0.474528 0.166502 -0.287243 0 0 255
0.525663 0.442539 -0.446613 255 0 0
-0.524071 0.000687 -0.238564 255 0 0
-0.548304 0.260092 -0.388292 255 0 0
0.232224 0.382346 -0.458903 255 0 0
-0.067555 -0.186668 0.671480 153 0 76
-0.279227 0.042383 -0.215584 0 0 255
0.133076 -0.150261 0.041337 0 127 127
0.460578 -0.216352 0.169232 153 0 76
0.425949 -0.216352 0.301036 153 0 76
-0.220849 -0.194121 -0.142111 153 0 76
0.374701 0.198049 -0.352510 255 0 0
-0.122821 0.370426 -0.404979 0 0 255
0.015401 0.045390 -0.264367 255 0 0
0.043746 0.058353 -0.271849 255 0 0
-0.470787 -0.144474 -0.106648 153 0 76
-0.154201 -0.144497 0.517368 76 0 153
-0.092753 0.477776 -0.513973 255 0 0
0.579488 -0.201223 0.403966 153 0 76
-0.483504 -0.216352 0.273806 153 0 76
0.565578 -0.186459 -0.015813 153 0 76
0.385569 -0.216352 -0.069082 153 0 76
-0.536163 0.476955 -0.513464 255 0 0
0.142763 -0.216352 0.468358 153 0 76
-0.450158 0.016689 -0.200749 0 0 255
0.028573 -0.216352 0.442964 153 0 76
-0.475063 0.541689 -0.546212 255 0 0
0.155959 -0.216352 0.194022 153 0 76
-0.165475 -0.142724 0.227056 153 0 76
0.447445 0.226625 -0.321955 0 0 255
0.271254 -0.213463 0.546819 153 0 76
-0.508739 -0.142724 0.509636 153 0 76
0.499708 0.612208 -0.538429 255 0 0
0.419563 -0.150261 0.106041 0 127 127
-0.428753 -0.113141 -0.099444 127 0 127
0.123490 -0.196121 0.636685 153 0 76
0.283002 -0.216352 0.323246 153 0 76
0.501694 -0.102454 -0.102509 127 0 127
0.163831 -0.159482 -0.124843 153 0 76
0.209931 0.162085 -0.284693 0 0 255
0.412583 0.158792 -0.329848 255 0 0
-0.211050 0.112365 -0.303024 255 0 0
0.301332 -0.197891 0.630168 153 0 76
-0.166309 -0.144650 -0.067646 153 0 76
-0.035981 -0.162856 0.697727 153 0 76
0.391544 -0.212418 0.555961 153 0 76
-0.055410 -0.075990 -0.140935 127 0 127
0.579488 -0.192256 0.638647 153 0 76
0.095106 0.271398 -0.394836 255 0 0
-0.395109 0.385550 -0.460706 255 0 0
-0.178761 0.244977 -0.379567 255 0 0
0.417294 -0.142724 0.403236 153 0 76
-0.498029 -0.196117 0.636697 153 0 76
0.233768 -0.142724 0.365543 0 127 127
0.134302 -0.216352 0.081785 153 0 76
0.102028 -0.150261 0.228411 0 127 127
-0.571448 -0.156643 0.332233 153 0 76
-0.241403 -0.142724 0.635667 153 0 76
-0.013802 0.543642 -0.546881 255 0 0
0.229305 -0.142724 0.202873 0 127 127
0.348432 0.188158 -0.346797 255 0 0
0.117950 -0.216352 0.285685 153 0 76
0.073445 0.532637 -0.498631 0 0 255
-0.443490 -0.142724 0.517343 153 0 76
0.359543 0.491659 -0.474973 0 0 255
-0.581724 0.359364 -0.416658 255 0 0
-0.015837 -0.144497 0.494932 76 0 153
0.226585 -0.124490 -0.185740 127 0 127
0.195747 0.570224 -0.554311 255 0 0
0.315837 0.342091 -0.435668 255 0 0
0.094381 -0.142724 0.488329 153 0 76
0.015131 -0.142724 -0.086975 153 0 76
0.073248 0.000029 -0.238185 255 0 0
-0.065437 0.015081 -0.246873 255 0 0
0.181322 0.108259 -0.300654 255 0 0
-0.024574 -0.208980 0.579592 153 0 76
-0.030636 -0.144497 0.634768 153 76 0
-0.251182 -0.150261 0.402086 0 127 127
-0.340905 -0.150261 0.356619 153 0 76
0.284766 -0.183464 0.683275 153 0 76
-0.440047 0.321833 -0.376924 0 0 255
0.275706 -0.216352 -0.087373 153 0 76
-0.347169 0.474080 -0.511819 255 0 0
0.416417 -0.142724 0.183993 0 127 127
-0.489054 -0.079150 -0.126609 127 0 127
-0.089916 0.611658 -0.556169 255 0 0
0.563074 0.019590 -0.196280 255 0 0
0.126397 -0.007251 -0.186305 0 0 255
-0.483051 -0.142724 0.403630 0 127 127
0.477434 0.483233 -0.470108 0 0 255
0.051718 -0.216352 0.095960 153 0 76
-0.012293 -0.163102 -0.138873 153 0 76
0.179806 -0.216352 0.125726 153 0 76
-0.355703 -0.216352 0.376293 153 0 76
