ply
format ascii 1.0
element vertex 1241
property float x
property float y
property float z
property uchar red
property uchar green
property uchar blue
end_header
0.206556 0.076944 -0.299710 153 0 76
-0.275788 0.488509 -0.458539 204 51 127
-0.039903 -0.209518 0.681181 153 0 76
-0.599458 -0.209518 -0.165748 153 0 76
-0.049667 -0.179132 0.705170 153 0 76
0.514605 -0.147918 -0.164288 153 0 76
-0.404825 -0.059892 -0.256303 153 0 76
-0.134029 -0.150367 0.456137 153 0 76
-0.366725 0.123045 -0.314334 153 0 76
-0.516744 -0.215293 0.262641 153 0 76
-0.108325 -0.147651 -0.256737 204 51 127
0.389307 0.565847 -0.454799 153 0 76
0.565520 -0.215293 0.461098 153 0 76
-0.071537 0.307397 -0.372814 153 0 76
-0.451374 -0.209518 0.700154 153 0 76
0.115606 -0.147918 0.307279 0 127 127
0.071790 -0.147918 0.119997 0 127 127
-0.177641 -0.089180 -0.247012 204 51 127
-0.077985 -0.189365 -0.173740 127 0 127
-0.280819 -0.196967 -0.194492 127 0 127
-0.035779 0.626716 -0.502381 204 51 127
0.299049 -0.215293 0.566062 153 0 76
-0.621394 -0.174395 0.364511 153 0 76
-0.565157 -0.147918 0.445453 153 0 76
-0.228737 0.280615 -0.364318 153 0 76
-0.134934 -0.215293 0.015285 153 0 76
0.005521 -0.147918 0.336836 0 127 127
0.158297 -0.215293 0.392554 153 0 76
0.598837 0.315107 -0.375259 204 51 127
0.573303 0.662066 -0.489255 204 51 127
0.392143 -0.147918 0.161371 0 127 127
0.196615 -0.169020 -0.249958 204 51 127
0.345665 -0.215293 0.094989 153 0 76
-0.300529 0.400185 -0.402248 153 0 76
0.156842 -0.215293 0.501362 153 0 76
-0.401068 -0.160161 0.096092 0 127 127
-0.156061 0.318602 -0.404641 204 51 127
0.177598 -0.215293 0.045155 153 0 76
-0.543181 -0.147918 0.562765 153 0 76
-0.508988 0.563622 -0.482366 204 51 127
0.084807 0.300715 -0.370694 153 0 76
0.327364 -0.215293 0.187183 153 0 76
-0.250353 -0.215293 0.341146 153 0 76
-0.065332 -0.147918 0.247615 0 127 127
0.000178 0.378377 -0.395330 153 0 76
-0.079357 0.525004 -0.441843 153 0 76
0.245155 -0.147918 0.700819 153 0 76
0.449997 -0.215293 0.526448 153 0 76
0.033890 -0.215293 0.584542 153 0 76
-0.360241 -0.076835 -0.250928 153 0 76
-0.360774 -0.147918 0.325266 0 127 127
-0.628317 0.138988 -0.319391 204 51 127
-0.330666 -0.019020 -0.297541 204 51 127
-0.001150 0.528515 -0.471230 204 51 127
-0.450789 0.303763 -0.399934 204 51 127
-0.051851 -0.138766 -0.231282 204 51 127
-0.637276 -0.161765 -0.023438 153 0 76
-0.182701 0.338459 -0.382667 153 0 76
-0.143198 -0.159570 -0.252956 204 51 127
0.583049 -0.147918 0.519256 153 0 76
0.194644 -0.158073 -0.173740 127 0 127
0.374551 -0.147918 0.098726 0 127 127
0.513063 0.368754 -0.420551 204 51 127
0.225367 -0.147918 -0.022441 0 127 127
0.537020 -0.147918 -0.051939 0 127 127
0.478107 -0.147918 0.461072 153 0 76
-0.446759 -0.215293 0.239244 153 0 76
0.148644 -0.152476 -0.068470 153 0 76
0.444228 -0.147918 0.006970 0 127 127
-0.312101 -0.215293 0.135218 153 0 76
-0.602079 0.656840 -0.488825 204 51 127
0.609295 -0.189894 -0.156696 153 0 76
0.395262 -0.147918 0.498310 153 0 76
0.172644 0.573854 -0.485612 204 51 127
-0.344551 -0.160161 0.359982 0 127 127
0.487664 -0.215293 -0.028296 153 0 76
-0.629351 -0.148876 0.670353 153 0 76
-0.267948 -0.158888 0.325062 0 127 127
-0.212090 -0.215293 0.635564 153 0 76
-0.500390 -0.209518 0.673858 153 0 76
-0.602740 -0.150951 0.261416 153 0 76
-0.174847 0.211650 -0.370714 204 51 127
-0.061993 -0.177056 -0.247409 204 51 127
0.311454 -0.209518 0.693915 153 0 76
-0.070523 0.661659 -0.490868 204 51 127
-0.040776 -0.039823 -0.262669 153 0 76
0.465288 -0.147918 0.628375 153 0 76
-0.606230 0.180843 -0.360942 204 51 127
-0.036292 -0.215293 0.267148 153 0 76
-0.423034 0.651979 -0.482122 204 51 127
0.039359 0.003856 -0.276525 153 0 76
0.128090 -0.215293 0.611670 153 0 76
-0.435268 -0.156001 0.031436 0 127 127
-0.593456 0.231133 -0.376895 204 51 127
0.618492 -0.147918 -0.160056 153 0 76
-0.637276 -0.159100 0.017994 153 0 76
0.631905 -0.149654 0.289076 153 0 76
0.127673 0.512510 -0.437879 153 0 76
-0.153448 -0.148477 0.658164 153 0 76
0.607127 -0.210297 0.118152 153 0 76
-0.268753 -0.147918 0.691323 153 0 76
0.527322 -0.129606 -0.234188 204 51 127
0.263215 -0.160161 0.216377 0 127 127
-0.268062 0.334544 -0.381425 153 0 76
0.516291 -0.167173 -0.183799 153 0 76
-0.059274 0.568652 -0.455689 153 0 76
-0.637276 -0.156330 0.509240 153 0 76
0.326085 -0.215293 0.337708 153 0 76
0.077616 0.506971 -0.464395 204 51 127
0.484542 0.040333 -0.288096 153 0 76
-0.056620 -0.215293 0.532156 153 0 76
0.534400 -0.215293 0.225005 153 0 76
0.648229 -0.167194 -0.062904 153 0 76
-0.520539 0.110878 -0.310474 153 0 76
-0.434699 -0.114248 -0.267333 204 51 127
0.280395 -0.147918 0.443069 153 0 76
-0.106198 -0.160161 0.090758 0 127 127
-0.393489 0.536516 -0.445494 153 0 76
-0.325552 0.435632 -0.413492 153 0 76
-0.249081 0.345197 -0.384804 153 0 76
-0.469689 -0.147918 0.418825 153 0 76
0.619846 -0.035124 -0.292433 204 51 127
0.265571 0.108035 -0.309572 153 0 76
0.272699 0.381469 -0.424584 204 51 127
0.318863 0.407946 -0.404710 153 0 76
0.024306 -0.160161 0.241671 0 127 127
0.164711 -0.215293 0.454200 153 0 76
0.426008 -0.147918 0.238213 0 127 127
0.415483 0.025046 -0.311520 204 51 127
-0.496564 0.039486 -0.316101 204 51 127
0.531493 0.279279 -0.363894 204 51 127
0.618908 0.454383 -0.447714 204 51 127
-0.583748 -0.137685 -0.259898 204 51 127
0.376601 -0.148805 0.392215 153 0 76
0.248902 -0.147918 0.096983 0 127 127
-0.036865 -0.215293 0.182857 153 0 76
0.098077 0.023822 -0.311131 204 51 127
-0.531854 -0.005107 -0.301955 204 51 127
-0.216225 -0.072058 -0.280717 204 51 127
-0.443398 0.614941 -0.470372 204 51 127
-0.083696 -0.209518 -0.125951 153 0 76
-0.481389 -0.215293 0.358299 153 0 76
0.448607 0.553905 -0.479284 204 51 127
-0.468787 -0.160161 0.142254 0 127 127
0.134365 -0.166891 -0.160560 153 0 76
-0.450292 0.037100 -0.315344 204 51 127
0.428960 -0.147918 0.536800 153 0 76
0.138187 -0.215293 0.427617 153 0 76
0.606665 0.467254 -0.423523 204 51 127
0.298403 -0.209518 -0.135965 153 0 76
-0.593326 0.281916 -0.393004 204 51 127
-0.453006 -0.206496 -0.173740 127 0 127
0.420233 0.535303 -0.445110 153 0 76
-0.632517 -0.147918 0.321943 153 0 76
0.296461 -0.151818 -0.007963 0 127 127
0.171253 -0.215293 0.172996 153 0 76
-0.637276 -0.169146 0.640347 153 0 76
0.099013 0.047881 -0.290491 153 0 76
-0.155887 -0.215293 0.029130 153 0 76
0.425591 0.258905 -0.357431 153 0 76
0.016901 -0.160134 0.143921 0 127 127
-0.319311 0.148625 -0.350722 204 51 127
0.351644 -0.215293 0.298020 153 0 76
-0.378612 -0.034704 -0.264293 153 0 76
0.259088 -0.147918 0.531476 153 0 76
-0.372724 -0.147918 0.451546 153 0 76
-0.248980 -0.149373 0.101944 0 127 127
-0.023295 -0.215293 0.492767 153 0 76
0.192615 0.432364 -0.412456 153 0 76
0.522661 -0.151598 0.052606 0 127 127
0.497949 -0.215293 0.240531 153 0 76
-0.243659 -0.215293 0.203148 153 0 76
-0.298551 -0.181885 -0.173740 153 0 76
0.456657 -0.147918 0.207767 0 127 127
-0.116074 -0.150367 0.501509 153 0 76
-0.515614 0.493044 -0.431704 153 0 76
0.270442 -0.154936 -0.212990 127 0 127
0.548036 -0.065059 -0.282937 204 51 127
-0.212769 -0.209518 0.686069 153 0 76
0.073016 -0.209518 -0.109523 153 0 76
-0.101776 0.245987 -0.353333 153 0 76
-0.046432 0.140607 -0.348178 204 51 127
0.075794 -0.148451 -0.181651 153 0 76
0.050823 -0.215293 0.569376 153 0 76
-0.391341 0.243807 -0.380915 204 51 127
-0.139411 -0.215293 -0.054532 153 0 76
0.436564 -0.209518 0.684450 153 0 76
0.095193 0.537712 -0.474147 204 51 127
-0.510941 0.195696 -0.365653 204 51 127
-0.096570 0.408810 -0.404984 153 0 76
0.189180 -0.157289 -0.220407 204 51 127
0.095729 -0.147918 0.199471 0 127 127
0.532718 -0.215293 0.152133 153 0 76
0.260688 -0.215293 0.486888 153 0 76
0.608232 -0.203764 -0.227047 204 51 127
0.192813 0.051170 -0.319807 204 51 127
0.278913 0.457462 -0.448690 204 51 127
0.508732 -0.147918 0.156812 0 127 127
0.480653 -0.209518 0.691338 153 0 76
-0.468302 0.542673 -0.475721 204 51 127
0.090954 -0.149973 0.072768 0 127 127
-0.026890 -0.215293 0.566241 153 0 76
0.527796 -0.215293 0.038834 153 0 76
0.192045 -0.147918 0.481090 153 0 76
-0.611170 0.007623 -0.305993 204 51 127
0.066751 -0.147918 0.194368 0 127 127
0.034742 0.128088 -0.344207 204 51 127
0.610660 -0.151519 0.053519 153 0 76
-0.023094 -0.215293 -0.011366 153 0 76
0.228372 0.141352 -0.320141 153 0 76
0.648229 -0.152221 0.576025 153 0 76
0.495239 -0.215293 0.604582 153 0 76
0.461979 -0.149838 0.386704 153 0 76
-0.559218 -0.108891 -0.269033 204 51 127
-0.340771 -0.215293 0.051582 153 0 76
-0.370359 -0.147918 -0.119020 153 0 76
-0.375120 0.236539 -0.350336 153 0 76
-0.479736 0.235377 -0.349967 153 0 76
-0.241872 -0.209518 0.695870 153 0 76
-0.439060 -0.215293 0.125672 153 0 76
-0.450965 -0.088025 -0.247378 204 51 127
-0.601130 -0.209518 0.503164 153 0 76
0.263668 0.256437 -0.356648 153 0 76
-0.156012 0.385715 -0.425931 204 51 127
0.218938 0.614840 -0.470340 204 51 127
-0.075640 -0.068626 -0.253532 153 0 76
-0.260697 -0.197143 -0.241037 204 51 127
0.166319 -0.215293 0.312603 153 0 76
-0.185510 -0.002823 -0.302679 204 51 127
0.363285 0.279061 -0.363825 153 0 76
-0.614621 -0.085851 -0.276341 204 51 127
0.036585 -0.206476 -0.224467 204 51 127
-0.159097 -0.147918 0.048557 0 127 127
0.463993 0.539462 -0.446429 153 0 76
0.338927 -0.215293 0.514443 153 0 76
0.607656 0.532782 -0.472583 204 51 127
-0.024350 0.312329 -0.374378 153 0 76
-0.247311 -0.202869 -0.213097 127 0 127
-0.281005 0.070452 -0.325923 204 51 127
-0.612998 0.386231 -0.397821 204 51 127
0.542347 -0.209518 -0.168815 153 0 76
-0.026747 -0.215293 0.122678 153 0 76
0.555829 0.155051 -0.352760 204 51 127
-0.102893 -0.215293 0.001009 153 0 76
0.071418 -0.215293 0.330809 153 0 76
0.496643 -0.161101 -0.252471 204 51 127
0.048745 -0.147918 0.332156 0 127 127
0.420742 -0.215293 0.175107 153 0 76
-0.408077 -0.147918 0.549739 153 0 76
-0.459607 -0.147918 0.234601 0 127 127
0.400761 -0.169768 -0.160806 127 0 127
0.512804 0.489421 -0.458828 204 51 127
0.449296 0.593124 -0.491725 204 51 127
0.577069 -0.149780 0.386579 153 0 76
0.141425 0.456095 -0.448257 204 51 127
-0.382822 -0.147918 0.093871 0 127 127
-0.173470 -0.215293 0.191050 153 0 76
-0.237673 -0.037890 -0.291555 204 51 127
-0.577852 0.146518 -0.321780 204 51 127
-0.216463 -0.215293 0.178308 153 0 76
0.296635 0.209615 -0.341795 153 0 76
-0.478053 -0.215293 0.547787 153 0 76
0.356334 -0.039535 -0.262760 153 0 76
-0.342593 0.400700 -0.402411 153 0 76
-0.376753 -0.215293 0.453232 153 0 76
0.060273 -0.150367 0.440181 153 0 76
0.382419 -0.147918 0.543235 153 0 76
-0.069946 -0.160161 -0.059825 0 127 127
-0.117726 -0.215293 -0.067605 153 0 76
-0.063909 0.484763 -0.429078 153 0 76
0.124758 -0.215293 0.204469 153 0 76
-0.418187 -0.147918 0.127152 0 127 127
-0.471341 0.133266 -0.345849 204 51 127
-0.065881 -0.215293 -0.010302 153 0 76
0.065586 0.314261 -0.374991 153 0 76
0.619829 -0.209518 0.231655 153 0 76
0.301553 -0.147918 0.245345 0 127 127
0.304643 0.056990 -0.321653 204 51 127
-0.569749 -0.172445 0.707095 153 0 76
0.520850 -0.029778 -0.265855 153 0 76
-0.382580 -0.209518 -0.154058 153 0 76
-0.297138 -0.147918 0.654722 153 0 76
0.267665 0.164208 -0.355665 204 51 127
-0.327252 -0.152214 -0.170720 153 0 76
-0.253465 -0.215293 0.424253 153 0 76
0.374804 -0.154866 -0.023765 0 127 127
-0.060544 -0.215293 0.648255 153 0 76
0.001748 -0.059595 -0.256397 153 0 76
-0.253026 -0.147918 0.200923 0 127 127
0.236329 -0.147918 0.638918 153 0 76
0.257328 -0.153370 -0.114065 153 0 76
0.279397 0.148900 -0.322535 153 0 76
-0.476391 -0.147918 0.586396 153 0 76
0.647443 -0.192844 -0.209634 153 0 76
-0.307118 -0.147918 0.516482 153 0 76
-0.058979 -0.147918 -0.130736 153 0 76
-0.420662 0.203462 -0.368117 204 51 127
-0.315031 -0.125499 -0.263764 204 51 127
0.029001 -0.150367 0.473230 153 0 76
0.002937 -0.215293 -0.022550 153 0 76
-0.073233 0.499151 -0.461915 204 51 127
0.425462 -0.051919 -0.287105 204 51 127
0.049083 -0.215293 0.406493 153 0 76
0.644638 0.612311 -0.495719 204 51 127
0.374759 -0.159560 -0.162578 127 0 127
-0.501013 -0.147918 0.245706 0 127 127
-0.002961 0.304985 -0.400322 204 51 127
0.247906 0.092708 -0.304710 153 0 76
0.329798 -0.169433 -0.160778 153 0 76
-0.292849 0.565583 -0.454715 153 0 76
0.020288 -0.209518 0.677687 153 0 76
0.045956 -0.215293 0.651049 153 0 76
-0.232984 -0.215293 0.356433 153 0 76
0.075208 -0.147918 0.279219 0 127 127
0.004571 0.329857 -0.379938 153 0 76
0.602287 0.198540 -0.338282 204 51 127
0.440943 0.327171 -0.407360 204 51 127
0.304579 -0.150370 -0.173740 127 0 127
-0.265281 -0.089996 -0.246753 204 51 127
0.568384 -0.209518 -0.111673 153 0 76
-0.615149 -0.209518 0.321904 153 0 76
0.419044 -0.147918 0.085690 0 127 127
-0.273675 -0.215293 0.533636 153 0 76
-0.310974 -0.147918 0.060389 0 127 127
-0.104456 0.271834 -0.389805 204 51 127
-0.182185 -0.147918 0.632679 153 0 76
-0.144203 0.351199 -0.386709 153 0 76
-0.277618 -0.147918 -0.169584 153 0 76
-0.637276 -0.190228 -0.151150 153 0 76
0.053257 0.245736 -0.381527 204 51 127
0.588735 -0.215293 0.169129 153 0 76
0.501022 -0.147918 0.692775 153 0 76
-0.624074 -0.147918 0.126031 153 0 76
0.244811 -0.147918 0.568722 153 0 76
0.644706 0.471620 -0.425252 204 51 127
-0.265120 -0.186801 0.705170 153 0 76
-0.377574 0.196471 -0.337626 153 0 76
-0.064373 -0.215293 0.304633 153 0 76
-0.134942 -0.149149 0.137069 0 127 127
0.473015 -0.147918 0.000983 0 127 127
-0.505149 -0.168422 -0.250148 204 51 127
-0.203398 -0.215293 0.600166 153 0 76
-0.190935 -0.215293 0.237073 153 0 76
-0.533383 -0.049780 -0.259511 204 51 127
-0.329754 -0.215293 0.370657 153 0 76
0.354047 -0.147918 0.245800 0 127 127
-0.029788 0.106790 -0.309177 153 0 76
-0.602991 -0.150904 0.309991 153 0 76
-0.557178 -0.209518 -0.164567 153 0 76
-0.528336 -0.147918 0.015804 0 127 127
-0.321534 0.581457 -0.488024 204 51 127
0.122744 -0.147918 0.680091 153 0 76
-0.577560 -0.056107 -0.285777 204 51 127
-0.525460 0.178899 -0.332052 204 51 127
0.119463 -0.215293 0.268562 153 0 76
0.515664 -0.147918 0.239706 0 127 127
0.055664 0.592134 -0.463138 204 51 127
-0.086280 -0.193582 -0.242167 204 51 127
-0.236955 -0.147918 0.022934 0 127 127
0.256549 -0.153763 0.365770 0 127 127
-0.176070 0.038946 -0.287656 153 0 76
-0.354817 0.350751 -0.414840 204 51 127
-0.154383 -0.209518 -0.104634 153 0 76
0.634633 -0.147918 0.532653 153 0 76
-0.169642 -0.147918 0.475899 153 0 76
-0.008904 0.490641 -0.459215 204 51 127
0.019740 -0.140766 -0.230648 204 51 127
-0.145082 0.203371 -0.368088 204 51 127
-0.589749 0.282332 -0.364863 204 51 127
0.450682 -0.215293 0.442833 153 0 76
0.503702 -0.147918 0.625594 153 0 76
0.186152 -0.186169 0.705170 153 0 76
-0.572262 -0.147918 0.277263 0 127 127
-0.204884 -0.215293 0.033460 153 0 76
0.350826 0.393832 -0.428506 204 51 127
0.229452 0.637116 -0.505680 204 51 127
-0.432546 -0.151322 -0.255573 204 51 127
-0.017276 0.005062 -0.305181 204 51 127
-0.281658 -0.147918 0.170933 0 127 127
-0.624439 -0.209518 0.146956 153 0 76
-0.134049 -0.147918 0.269311 0 127 127
-0.244393 -0.215293 0.466971 153 0 76
0.098133 -0.160161 -0.004686 0 127 127
0.353620 0.635632 -0.505209 204 51 127
-0.637276 -0.179046 0.249715 153 0 76
0.411852 0.193008 -0.336527 153 0 76
0.584187 0.194263 -0.365199 204 51 127
0.644898 -0.148655 0.618178 153 0 76
-0.595593 -0.150301 -0.227623 204 51 127
-0.167606 0.460783 -0.449744 204 51 127
0.093937 0.400887 -0.402470 153 0 76
-0.111759 0.534270 -0.473055 204 51 127
0.122860 -0.107058 -0.269614 204 51 127
0.648229 -0.189890 0.271860 153 0 76
0.222154 -0.029903 -0.294089 204 51 127
-0.620544 -0.171105 0.105411 153 0 76
-0.117605 -0.164242 0.705289 153 0 76
-0.211917 -0.215293 0.485359 153 0 76
-0.328672 -0.147962 0.703073 153 0 76
-0.363697 0.570268 -0.456201 204 51 127
0.249283 -0.215293 0.363949 153 0 76
0.263613 0.032404 -0.313854 204 51 127
-0.612296 0.173103 -0.330213 204 51 127
0.330811 -0.048242 -0.259998 153 0 76
0.217130 0.546094 -0.476806 204 51 127
0.506043 -0.215293 0.649795 153 0 76
-0.251021 -0.152976 0.126943 0 127 127
0.489281 0.456409 -0.448356 204 51 127
0.545171 -0.147918 0.196147 0 127 127
-0.202790 -0.158468 0.066383 0 127 127
-0.528009 0.220105 -0.345123 153 0 76
-0.289578 -0.147918 0.107684 0 127 127
-0.614176 -0.188601 0.406814 153 0 76
-0.236505 -0.147918 -0.158819 153 0 76
0.204921 -0.215293 0.029464 153 0 76
-0.400544 0.438514 -0.442680 204 51 127
0.372999 -0.154040 0.329351 0 127 127
0.562431 -0.171762 -0.220816 204 51 127
-0.231340 -0.058730 -0.256671 153 0 76
-0.072346 0.519361 -0.468326 204 51 127
0.499311 -0.166123 0.705170 153 0 76
0.247743 0.378075 -0.395234 153 0 76
0.419599 -0.215293 0.626963 153 0 76
-0.374564 0.142375 -0.320466 153 0 76
0.200220 0.322863 -0.377720 153 0 76
0.641623 -0.042383 -0.290130 204 51 127
-0.007670 -0.215293 0.376958 153 0 76
-0.284398 -0.117280 -0.266371 204 51 127
-0.334878 -0.192012 -0.242665 204 51 127
-0.272215 0.532941 -0.444360 153 0 76
0.484451 -0.107550 -0.269458 204 51 127
-0.374780 -0.147918 -0.043793 0 127 127
0.209868 -0.063854 -0.283319 204 51 127
-0.023680 -0.168062 -0.250263 204 51 127
0.630803 -0.179937 0.061083 153 0 76
0.595237 -0.160161 0.261433 0 127 127
-0.214147 -0.215293 0.134803 153 0 76
-0.576000 0.437143 -0.413972 204 51 127
-0.165687 -0.147918 0.094566 0 127 127
0.169732 -0.149211 0.688730 153 0 76
0.513905 -0.215293 -0.076758 153 0 76
-0.503290 -0.206037 -0.223085 127 0 127
-0.455538 0.062119 -0.295007 153 0 76
0.095846 0.309581 -0.401780 204 51 127
0.077242 0.034442 -0.286227 153 0 76
0.345018 -0.215293 -0.044553 153 0 76
-0.467431 -0.215293 0.146271 153 0 76
0.580397 -0.150034 -0.196644 153 0 76
0.260932 -0.027535 -0.294840 204 51 127
0.105967 -0.208745 -0.231621 204 51 127
0.569794 -0.167738 -0.250365 204 51 127
-0.513750 -0.016474 -0.298349 204 51 127
0.606158 0.396133 -0.429236 204 51 127
0.552973 0.545123 -0.476498 204 51 127
0.144028 -0.149208 0.293574 0 127 127
-0.261741 -0.147918 0.159955 0 127 127
-0.534712 -0.215293 0.101617 153 0 76
0.578185 -0.137686 -0.259898 204 51 127
-0.408724 0.356477 -0.416656 204 51 127
-0.379628 -0.215293 0.355864 153 0 76
0.435741 0.283682 -0.365291 153 0 76
0.639504 -0.147918 0.264824 153 0 76
0.327242 0.019790 -0.309853 204 51 127
-0.213769 0.313103 -0.402897 204 51 127
0.091626 -0.215293 0.059708 153 0 76
0.224625 -0.215293 0.455997 153 0 76
-0.192610 -0.215293 0.421576 153 0 76
-0.494315 -0.215293 0.182256 153 0 76
0.334371 -0.148780 0.392344 153 0 76
0.470313 -0.196640 -0.193460 127 0 127
0.467061 -0.215293 0.366103 153 0 76
0.561204 -0.215293 0.261867 153 0 76
-0.433522 -0.205155 -0.220303 204 51 127
-0.634467 -0.171212 0.196359 153 0 76
0.638218 -0.000933 -0.303279 204 51 127
0.369855 -0.209518 -0.173485 153 0 76
-0.621482 0.063859 -0.295559 204 51 127
-0.625345 -0.186997 0.184180 153 0 76
-0.412258 -0.213383 -0.085193 153 0 76
-0.371981 -0.160161 0.289949 0 127 127
-0.239403 -0.215293 0.101081 153 0 76
0.405435 -0.160161 0.124691 0 127 127
0.556082 -0.122718 -0.264646 204 51 127
0.217023 -0.215293 0.223010 153 0 76
0.621157 -0.209518 -0.105031 153 0 76
-0.066538 -0.215293 0.425717 153 0 76
-0.324292 -0.215293 0.495044 153 0 76
0.494127 0.547257 -0.448902 204 51 127
-0.069920 -0.147918 0.204560 0 127 127
-0.075534 0.243789 -0.380909 204 51 127
-0.323983 0.246016 -0.353343 153 0 76
0.449800 0.274013 -0.390497 204 51 127
-0.637276 -0.168345 0.468017 153 0 76
0.406005 -0.147918 -0.015957 0 127 127
0.448400 -0.215293 0.653647 153 0 76
0.535385 0.001403 -0.304020 204 51 127
0.523925 0.061306 -0.294749 153 0 76
-0.427687 -0.215293 0.203459 153 0 76
-0.261662 -0.147918 0.462462 153 0 76
0.439328 0.323485 -0.377917 153 0 76
0.169903 -0.151365 -0.201731 127 0 127
0.210502 -0.209518 -0.117563 153 0 76
0.512707 0.376035 -0.394587 153 0 76
-0.334353 -0.215293 0.587967 153 0 76
-0.563134 -0.075690 -0.251291 204 51 127
0.324499 -0.215293 0.418019 153 0 76
0.055545 0.465227 -0.422880 153 0 76
-0.357417 0.130482 -0.344966 204 51 127
-0.026287 -0.039603 -0.291012 204 51 127
0.367692 0.121500 -0.342117 204 51 127
-0.512056 0.394939 -0.428857 204 51 127
0.135283 -0.215293 0.074456 153 0 76
-0.019271 -0.215293 -0.061696 153 0 76
0.648229 -0.157706 0.036073 153 0 76
0.257421 0.420416 -0.408666 153 0 76
-0.432271 -0.147918 0.209746 0 127 127
-0.114344 0.046347 -0.318277 204 51 127
0.334079 -0.147918 -0.039149 0 127 127
-0.018570 0.426223 -0.410508 153 0 76
-0.015259 -0.147918 0.300292 0 127 127
0.538551 -0.215293 0.637791 153 0 76
0.641011 -0.209518 0.434897 153 0 76
0.512355 0.212637 -0.342754 204 51 127
-0.227929 -0.147918 0.701748 153 0 76
-0.017335 -0.160157 0.360212 0 127 127
0.592632 0.615068 -0.470413 204 51 127
0.356708 0.187959 -0.363199 204 51 127
0.382646 -0.215293 0.443466 153 0 76
-0.607040 0.349319 -0.414385 204 51 127
-0.206610 0.531460 -0.443891 153 0 76
-0.513530 0.013670 -0.279638 204 51 127
-0.565501 -0.151718 0.376181 153 0 76
0.270097 -0.042900 -0.261693 153 0 76
0.169614 -0.215293 0.354977 153 0 76
0.411843 0.221038 -0.373692 204 51 127
-0.196206 -0.148073 -0.091948 153 0 76
0.204377 0.122222 -0.314073 153 0 76
-0.416262 -0.209518 -0.144649 153 0 76
0.476703 0.514204 -0.466690 204 51 127
0.459239 -0.215293 0.025687 153 0 76
0.068709 0.363524 -0.390618 153 0 76
0.307166 -0.024142 -0.267643 153 0 76
0.647472 -0.166167 0.511589 153 0 76
0.417979 -0.022159 -0.296546 204 51 127
0.080078 -0.153077 -0.114065 153 0 76
-0.462082 0.155137 -0.324514 153 0 76
0.084079 -0.150367 0.581186 153 0 76
0.480602 -0.215293 0.401347 153 0 76
-0.396111 -0.152981 -0.206825 127 0 127
0.469268 0.437991 -0.414241 153 0 76
0.146208 0.281101 -0.392745 204 51 127
0.593136 -0.155411 0.189124 0 127 127
0.596362 -0.029717 -0.265875 204 51 127
-0.089697 0.597503 -0.464841 204 51 127
-0.588862 -0.147987 -0.084616 153 0 76
0.139668 -0.147918 0.130616 0 127 127
0.620617 0.521763 -0.440815 204 51 127
-0.516571 -0.147918 0.226798 0 127 127
0.448018 -0.147918 0.432073 153 0 76
-0.483975 -0.215293 0.266102 153 0 76
-0.604236 -0.209518 -0.054178 153 0 76
0.186095 -0.208343 -0.173740 153 0 76
0.219032 0.394487 -0.428713 204 51 127
-0.482798 -0.158056 0.707095 153 0 76
-0.521655 0.660986 -0.492990 204 51 127
0.500584 -0.209518 -0.112356 153 0 76
-0.254674 0.620234 -0.472051 204 51 127
-0.214636 -0.147918 -0.025054 0 127 127
0.445960 -0.053972 -0.258181 153 0 76
0.631167 -0.151730 0.423488 153 0 76
-0.345679 -0.215293 0.178295 153 0 76
0.623445 0.224194 -0.346420 204 51 127
0.560458 -0.153558 0.366866 0 127 127
-0.090571 -0.215293 0.023608 153 0 76
-0.523108 -0.147918 -0.024389 0 127 127
0.206432 -0.147918 0.648190 153 0 76
-0.361862 0.475413 -0.426111 153 0 76
-0.087728 -0.147918 0.639784 153 0 76
0.517777 0.414450 -0.406773 153 0 76
-0.317093 -0.209518 -0.118391 153 0 76
-0.256755 0.657847 -0.502884 204 51 127
0.207259 -0.154110 -0.210386 127 0 127
-0.073099 -0.205640 -0.221834 204 51 127
0.420364 -0.147918 0.113321 0 127 127
-0.286343 0.182863 -0.333309 153 0 76
-0.221032 -0.147918 0.651154 153 0 76
0.480874 -0.215293 0.323125 153 0 76
-0.088353 -0.147918 0.403481 153 0 76
0.185500 0.421216 -0.437192 204 51 127
-0.231922 0.455924 -0.419929 153 0 76
0.471034 -0.028161 -0.266368 153 0 76
0.256754 0.495076 -0.460622 204 51 127
0.007000 0.509377 -0.465159 204 51 127
-0.537682 -0.147918 0.400578 153 0 76
0.305631 0.475243 -0.426058 153 0 76
0.492655 0.095910 -0.305726 153 0 76
0.564956 -0.147918 -0.120889 153 0 76
-0.146667 -0.215293 0.469090 153 0 76
0.263444 -0.154072 -0.173740 153 0 76
0.523036 -0.215293 0.557728 153 0 76
-0.361810 -0.157885 0.050861 0 127 127
-0.415599 -0.160161 0.332946 0 127 127
0.193045 0.649114 -0.509486 204 51 127
0.546465 -0.147918 0.129470 0 127 127
0.387302 0.107524 -0.309410 153 0 76
0.009562 -0.104609 -0.242118 204 51 127
0.324731 -0.147918 0.462740 153 0 76
-0.137051 0.139741 -0.347903 204 51 127
-0.456588 -0.215293 0.651473 153 0 76
0.440768 0.535470 -0.473436 204 51 127
0.143037 0.169005 -0.357186 204 51 127
0.120777 -0.150367 0.515588 153 0 76
-0.586697 -0.213316 0.019769 153 0 76
-0.463866 -0.147918 0.645314 153 0 76
0.480637 -0.147918 0.045276 0 127 127
0.220795 0.427646 -0.439232 204 51 127
0.428009 -0.147918 0.468830 153 0 76
0.596725 -0.147918 0.614565 153 0 76
0.404392 -0.215293 0.348892 153 0 76
-0.411271 -0.215293 0.244862 153 0 76
-0.121226 -0.209518 -0.120968 153 0 76
-0.359222 0.385368 -0.397547 153 0 76
0.116260 -0.147918 0.172475 0 127 127
-0.201006 -0.170962 -0.161137 153 0 76
-0.316856 -0.147918 0.493080 153 0 76
0.325485 -0.121539 -0.236747 204 51 127
0.577703 -0.148569 -0.088836 153 0 76
-0.354709 0.652692 -0.484367 204 51 127
0.123417 0.467017 -0.423448 153 0 76
-0.567919 -0.147918 0.151187 0 127 127
0.369836 -0.209518 -0.133067 153 0 76
0.029431 -0.215293 0.608928 153 0 76
0.648229 -0.187577 0.532438 153 0 76
-0.538025 -0.147918 -0.137845 153 0 76
-0.176178 -0.147918 0.158074 0 127 127
0.027562 -0.158843 0.066383 0 127 127
-0.331121 0.190191 -0.335634 153 0 76
-0.008153 -0.157366 0.707095 153 0 76
0.354479 -0.159192 0.070464 0 127 127
0.491304 0.575840 -0.457969 153 0 76
-0.114726 0.164397 -0.355725 204 51 127
-0.218702 0.645154 -0.508230 204 51 127
-0.637276 -0.152389 0.282871 153 0 76
0.341618 0.426048 -0.410452 153 0 76
-0.195325 0.301047 -0.399073 204 51 127
0.527684 0.640126 -0.506635 204 51 127
0.111088 0.203656 -0.339905 153 0 76
-0.268357 0.176575 -0.359588 204 51 127
-0.384011 0.651340 -0.510192 204 51 127
0.356373 0.481465 -0.428031 153 0 76
0.046649 -0.215293 0.342170 153 0 76
-0.186952 0.165102 -0.355948 204 51 127
-0.314888 -0.147918 -0.014614 0 127 127
-0.464981 -0.215293 -0.050966 153 0 76
-0.144266 -0.215293 -0.015121 153 0 76
-0.564141 -0.151088 -0.199187 153 0 76
-0.075621 -0.003013 -0.274346 153 0 76
0.146980 -0.049434 -0.287894 204 51 127
-0.016996 -0.147918 0.131599 0 127 127
-0.606840 -0.209518 -0.020087 153 0 76
-0.246058 -0.147918 -0.050966 0 127 127
-0.002788 0.652229 -0.509845 204 51 127
-0.467860 -0.209518 0.686757 153 0 76
0.344573 -0.147918 0.584411 153 0 76
0.497916 -0.160161 0.288301 0 127 127
0.467236 -0.147918 0.177908 0 127 127
-0.479785 0.000602 -0.275492 153 0 76
-0.520973 -0.215293 0.227438 153 0 76
-0.535779 -0.215293 0.401592 153 0 76
-0.093374 -0.165146 -0.160806 127 0 127
0.043560 -0.144807 -0.229366 127 0 127
-0.261137 0.166749 -0.328198 153 0 76
0.000244 -0.200690 -0.239912 204 51 127
0.057483 -0.004461 -0.302160 204 51 127
-0.272013 -0.215293 0.492068 153 0 76
-0.620225 0.595764 -0.492562 204 51 127
-0.426019 -0.147918 -0.160187 153 0 76
-0.420198 -0.036624 -0.263684 153 0 76
0.035621 0.553942 -0.451022 153 0 76
0.602940 0.064784 -0.324126 204 51 127
0.536085 0.337046 -0.382219 204 51 127
0.349199 -0.154206 0.364293 153 0 76
0.142233 -0.190166 -0.173740 127 0 127
-0.084753 0.449036 -0.417744 153 0 76
0.442341 0.074409 -0.327179 204 51 127
0.504068 -0.147918 0.197621 0 127 127
0.581688 -0.147918 0.410787 153 0 76
0.057971 0.170226 -0.357574 204 51 127
-0.305016 -0.147918 0.245361 0 127 127
0.106536 0.661284 -0.487747 204 51 127
-0.105398 -0.215293 0.489439 153 0 76
-0.402054 -0.192226 -0.242597 204 51 127
-0.042595 -0.215293 0.218654 153 0 76
-0.453846 -0.170613 0.707095 153 0 76
-0.336558 -0.203874 -0.216267 127 0 127
0.535256 -0.215293 0.319427 153 0 76
-0.249592 -0.210036 -0.091811 153 0 76
0.392086 0.469403 -0.424205 153 0 76
0.227074 -0.215293 0.050809 153 0 76
-0.535097 0.192993 -0.364796 204 51 127
0.470159 0.395537 -0.400773 153 0 76
-0.095412 -0.215293 -0.046840 153 0 76
0.486340 -0.051167 -0.259071 153 0 76
-0.539337 0.569592 -0.455987 204 51 127
0.475155 0.241242 -0.351828 153 0 76
0.079200 -0.185320 -0.173740 153 0 76
-0.285227 -0.166677 0.707095 153 0 76
0.186839 -0.147918 0.523386 153 0 76
0.613585 -0.209518 0.201602 153 0 76
-0.196836 -0.147918 0.555336 153 0 76
0.035324 0.177545 -0.359895 204 51 127
0.636363 -0.209518 0.456549 153 0 76
0.262325 -0.147918 0.168655 0 127 127
0.116700 -0.215293 -0.013671 153 0 76
0.477278 0.489314 -0.458795 204 51 127
-0.412118 -0.215293 0.043041 153 0 76
-0.345575 -0.147918 -0.136115 153 0 76
-0.005263 -0.215293 0.198296 153 0 76
-0.101957 -0.150367 0.441167 153 0 76
-0.637276 0.359158 -0.399656 204 51 127
-0.041728 0.080587 -0.329139 204 51 127
-0.331710 0.025328 -0.283336 153 0 76
0.104134 -0.147918 0.094072 0 127 127
0.079360 -0.027952 -0.294708 204 51 127
-0.110518 -0.215293 0.042358 153 0 76
0.361184 -0.105586 -0.241808 204 51 127
-0.620240 0.424585 -0.409988 204 51 127
-0.309349 -0.160161 0.286898 0 127 127
-0.001336 0.283711 -0.393573 204 51 127
-0.529122 -0.147918 0.426929 153 0 76
-0.206437 0.346559 -0.385237 153 0 76
0.443601 -0.147918 0.148082 0 127 127
-0.127250 -0.147918 -0.016749 0 127 127
0.520832 0.332220 -0.408961 204 51 127
0.347952 -0.160161 0.143427 0 127 127
0.486552 0.292183 -0.396261 204 51 127
0.119777 -0.202946 -0.213339 204 51 127
0.449056 -0.097590 -0.244344 204 51 127
-0.349996 0.406635 -0.432567 204 51 127
-0.210359 0.106782 -0.337448 204 51 127
0.355601 0.259393 -0.357586 153 0 76
0.205721 -0.147918 0.010156 0 127 127
0.384441 0.092411 -0.332889 204 51 127
-0.093133 0.541361 -0.447031 153 0 76
-0.321068 -0.190078 -0.175626 153 0 76
0.152195 -0.157059 0.707095 153 0 76
0.502324 0.518753 -0.468133 204 51 127
0.032048 -0.134037 -0.261056 204 51 127
0.648229 -0.195795 0.574063 153 0 76
0.408601 0.253615 -0.384026 204 51 127
-0.197534 0.594010 -0.492006 204 51 127
0.176419 -0.165028 -0.251225 204 51 127
0.024724 0.138817 -0.319337 153 0 76
-0.422633 0.284266 -0.393749 204 51 127
0.399437 -0.147918 0.007094 0 127 127
-0.064611 -0.215293 0.028329 153 0 76
0.002317 -0.160161 0.019013 0 127 127
-0.085666 -0.209518 -0.149037 153 0 76
0.631091 0.009918 -0.278448 204 51 127
0.476198 -0.191188 -0.242927 204 51 127
0.354331 -0.064359 -0.283159 204 51 127
0.260839 -0.215293 0.024315 153 0 76
0.120255 -0.215293 0.369348 153 0 76
-0.616617 -0.085204 -0.248273 204 51 127
0.013468 -0.215293 0.501584 153 0 76
-0.153925 0.269456 -0.360778 153 0 76
0.498258 -0.151695 -0.055109 0 127 127
-0.044175 -0.201901 -0.239528 204 51 127
0.192566 -0.147918 0.295575 0 127 127
0.250568 -0.161491 -0.252347 204 51 127
0.178861 0.111824 -0.339047 204 51 127
-0.090975 -0.215293 0.117053 153 0 76
-0.601091 0.161839 -0.354913 204 51 127
0.550016 0.490838 -0.431005 204 51 127
0.298906 0.641972 -0.478947 204 51 127
-0.634325 -0.149023 -0.063618 153 0 76
-0.635351 -0.165930 0.602327 153 0 76
-0.093971 0.164889 -0.355881 204 51 127
-0.589986 -0.156377 -0.253969 204 51 127
0.065843 -0.139857 -0.230937 204 51 127
-0.449464 -0.215293 0.043597 153 0 76
0.636035 -0.209518 -0.070184 153 0 76
0.199595 0.287894 -0.394900 204 51 127
-0.278425 0.422481 -0.437594 204 51 127
-0.054351 0.113263 -0.339504 204 51 127
0.526351 -0.099845 -0.271902 204 51 127
-0.417297 -0.190097 0.705170 153 0 76
0.020851 -0.157820 -0.056046 153 0 76
0.594307 -0.214383 0.287519 153 0 76
0.169997 0.030446 -0.313233 204 51 127
0.492830 -0.215293 0.080144 153 0 76
0.250331 -0.063221 -0.255247 204 51 127
-0.399539 0.517655 -0.439511 153 0 76
0.594347 -0.175633 -0.167872 153 0 76
-0.033065 -0.147918 -0.124719 153 0 76
-0.157118 -0.215293 0.210430 153 0 76
0.545114 0.624272 -0.473332 204 51 127
-0.382817 -0.185101 0.705170 153 0 76
-0.201196 -0.209518 0.669098 153 0 76
-0.158809 -0.048528 -0.288181 204 51 127
-0.266670 -0.160039 0.143921 0 127 127
0.561751 -0.147918 0.443252 153 0 76
0.563901 -0.215293 0.358800 153 0 76
-0.536864 0.318444 -0.376318 204 51 127
0.295666 0.281094 -0.364470 153 0 76
-0.464321 -0.147918 0.015596 0 127 127
0.389377 -0.140003 -0.230890 127 0 127
-0.594241 0.513609 -0.466501 204 51 127
-0.305618 -0.196306 -0.192409 127 0 127
-0.517902 0.545085 -0.476486 204 51 127
0.162108 -0.129608 -0.234187 204 51 127
-0.376811 -0.147918 0.308506 0 127 127
0.258463 -0.209518 -0.105458 153 0 76
-0.199346 -0.147918 0.505788 153 0 76
0.430674 -0.147918 0.302682 0 127 127
-0.290950 0.387123 -0.426378 204 51 127
-0.209746 0.354557 -0.416047 204 51 127
0.474500 -0.012485 -0.299614 204 51 127
-0.005090 -0.147918 0.057926 0 127 127
-0.470036 -0.215293 0.104415 153 0 76
-0.437725 0.009037 -0.278168 153 0 76
-0.636206 -0.185945 0.318728 153 0 76
-0.104881 0.481220 -0.427954 153 0 76
0.584894 0.271450 -0.361411 204 51 127
-0.329265 0.295576 -0.397337 204 51 127
-0.291868 0.330888 -0.408539 204 51 127
-0.327688 -0.147918 0.275807 0 127 127
0.259595 -0.049294 -0.287938 204 51 127
-0.343866 -0.196853 -0.194133 127 0 127
-0.569089 -0.215293 0.083008 153 0 76
0.182459 0.599052 -0.493605 204 51 127
0.581849 0.008471 -0.277989 204 51 127
-0.317011 -0.215293 0.391680 153 0 76
0.161430 -0.147918 0.416403 153 0 76
0.263774 0.554919 -0.451332 153 0 76
0.480344 -0.147918 0.687579 153 0 76
0.279793 -0.164076 -0.251527 204 51 127
0.268511 -0.215293 0.193669 153 0 76
-0.177472 -0.215293 -0.039544 153 0 76
-0.448402 -0.147918 0.661219 153 0 76
-0.497600 0.080760 -0.329193 204 51 127
0.343183 0.599056 -0.493607 204 51 127
-0.618318 -0.147918 -0.117372 153 0 76
-0.599550 -0.209518 0.273096 153 0 76
0.232143 -0.215293 0.183767 153 0 76
-0.463760 -0.163979 -0.251558 204 51 127
0.474506 -0.215293 0.280003 153 0 76
0.296417 -0.147918 0.095499 0 127 127
-0.542529 0.038380 -0.315750 204 51 127
0.273759 -0.147918 0.464321 153 0 76
0.563156 -0.147918 0.591628 153 0 76
-0.528549 -0.160161 0.068720 0 127 127
0.168894 0.535501 -0.473446 204 51 127
-0.035674 -0.215293 0.447544 153 0 76
0.367486 -0.147918 0.443091 153 0 76
-0.415681 -0.161204 0.707095 153 0 76
-0.517529 -0.147939 0.688730 153 0 76
-0.411423 -0.147918 -0.046911 0 127 127
-0.315355 0.640472 -0.478471 204 51 127
0.014005 -0.215293 0.543338 153 0 76
-0.364504 -0.215250 -0.081502 153 0 76
0.332241 -0.095837 -0.273174 204 51 127
-0.314993 -0.215293 0.581430 153 0 76
0.239579 0.538811 -0.474496 204 51 127
-0.185139 -0.164651 -0.251344 204 51 127
-0.286210 -0.147918 0.127888 0 127 127
0.216238 -0.148748 0.392519 153 0 76
-0.528608 -0.147918 0.661361 153 0 76
-0.366839 -0.205968 -0.222868 127 0 127
0.042122 -0.148532 0.283634 0 127 127
-0.147940 -0.215293 0.362155 153 0 76
0.105034 -0.149311 0.389513 153 0 76
0.399317 -0.147918 0.458971 153 0 76
0.318119 0.203306 -0.368067 204 51 127
0.049214 -0.147918 0.059377 0 127 127
-0.005388 -0.207795 -0.173740 153 0 76
-0.410679 -0.148426 -0.181939 127 0 127
0.605991 0.604830 -0.495438 204 51 127
0.083904 -0.091216 -0.274639 204 51 127
-0.064498 0.123313 -0.314419 153 0 76
0.616080 -0.209518 0.639401 153 0 76
0.021924 -0.215293 0.233985 153 0 76
-0.069681 0.390291 -0.399109 153 0 76
0.023974 -0.065633 -0.254482 204 51 127
0.416760 -0.215293 0.500813 153 0 76
0.285071 -0.147918 0.660100 153 0 76
0.648229 0.325941 -0.385027 204 51 127
0.202015 0.351300 -0.415014 204 51 127
0.332311 0.630073 -0.503446 204 51 127
-0.056613 -0.104132 -0.242269 204 51 127
-0.362533 0.369900 -0.420914 204 51 127
0.317521 -0.215293 -0.063285 153 0 76
0.468069 0.289155 -0.367027 153 0 76
0.392986 -0.215293 0.214159 153 0 76
0.646798 -0.206894 0.497438 153 0 76
-0.168694 0.248520 -0.354137 153 0 76
-0.550807 -0.147918 -0.023815 0 127 127
-0.050262 -0.022953 -0.296294 204 51 127
-0.054411 -0.147918 0.037647 0 127 127
-0.121884 -0.147918 0.325728 0 127 127
0.364801 -0.147918 0.209250 0 127 127
-0.354065 -0.209518 0.668466 153 0 76
-0.319498 0.429595 -0.439851 204 51 127
-0.202519 -0.215293 0.153037 153 0 76
0.134240 -0.160161 0.177193 0 127 127
-0.342709 -0.147918 -0.052146 0 127 127
0.639311 -0.147918 -0.177653 153 0 76
-0.386575 0.219935 -0.345069 153 0 76
0.385756 -0.215293 0.080244 153 0 76
0.583133 -0.010540 -0.300231 204 51 127
0.263935 0.306297 -0.400738 204 51 127
0.037531 0.176761 -0.331373 153 0 76
0.395952 0.296485 -0.369352 153 0 76
0.294916 -0.147918 0.522494 153 0 76
-0.544397 -0.103514 -0.242465 204 51 127
0.614488 -0.150801 0.153543 153 0 76
-0.153242 -0.150177 -0.094816 153 0 76
-0.125037 0.122098 -0.342307 204 51 127
-0.620952 -0.150657 -0.159603 153 0 76
-0.542141 -0.147918 0.480709 153 0 76
0.547060 0.459491 -0.449334 204 51 127
-0.163491 -0.215293 0.251647 153 0 76
-0.636606 0.154659 -0.349299 204 51 127
-0.068547 -0.144903 -0.257609 204 51 127
0.173318 -0.215293 0.137165 153 0 76
-0.207126 0.466327 -0.423229 153 0 76
0.517130 -0.147918 0.654441 153 0 76
0.516291 -0.183559 -0.200394 153 0 76
0.308146 0.617953 -0.499601 204 51 127
-0.000528 0.404569 -0.403638 153 0 76
-0.288012 -0.215293 0.244579 153 0 76
0.457880 -0.047398 -0.288539 204 51 127
-0.404591 -0.209518 0.685852 153 0 76
-0.452911 0.587106 -0.461543 204 51 127
-0.513806 -0.147918 -0.096062 153 0 76
-0.553790 0.478721 -0.427161 204 51 127
-0.558600 0.050439 -0.291302 204 51 127
-0.118138 0.147096 -0.321963 153 0 76
0.544806 0.500063 -0.462204 204 51 127
0.648229 -0.169617 -0.207894 153 0 76
-0.457927 -0.147918 0.447050 153 0 76
0.311989 -0.150520 -0.114065 153 0 76
0.248622 0.350011 -0.414605 204 51 127
0.152161 0.482012 -0.428205 153 0 76
0.081873 0.640896 -0.506879 204 51 127
-0.207221 -0.215293 0.529987 153 0 76
-0.567795 0.125203 -0.343292 204 51 127
-0.297895 -0.037032 -0.263554 153 0 76
-0.193464 -0.147918 0.458530 153 0 76
-0.099799 0.522497 -0.441047 153 0 76
-0.510540 0.226652 -0.375473 204 51 127
0.268694 0.126329 -0.343649 204 51 127
-0.331086 -0.211816 0.663889 153 0 76
0.000834 0.240332 -0.351539 153 0 76
0.616475 -0.147918 0.504326 153 0 76
0.438979 0.629798 -0.503358 204 51 127
0.004105 -0.151131 0.379808 153 0 76
0.218229 0.584143 -0.460602 204 51 127
-0.383113 0.050305 -0.319532 204 51 127
-0.451831 0.237666 -0.350694 153 0 76
0.068183 -0.065634 -0.254481 153 0 76
0.089670 0.445345 -0.416573 153 0 76
-0.637276 0.464308 -0.435144 204 51 127
-0.417545 -0.159663 0.066383 0 127 127
0.168715 -0.159140 0.228575 0 127 127
-0.468011 0.098551 -0.334837 204 51 127
0.388521 -0.209518 -0.156565 153 0 76
0.600779 -0.138858 -0.231253 204 51 127
0.018268 0.152448 -0.351934 204 51 127
0.580427 -0.215293 0.548403 153 0 76
0.496756 0.044895 -0.317816 204 51 127
0.406966 0.122332 -0.342381 204 51 127
-0.039141 -0.147918 0.701659 153 0 76
0.444146 -0.010181 -0.300345 204 51 127
-0.455273 -0.215293 0.468359 153 0 76
-0.092366 0.014564 -0.279921 153 0 76
-0.218852 -0.209518 -0.152585 153 0 76
-0.077632 -0.098801 -0.272233 204 51 127
0.105377 -0.147918 0.660665 153 0 76
-0.335086 0.116234 -0.340447 204 51 127
0.027572 -0.147918 -0.165703 153 0 76
-0.274193 -0.215293 0.021765 153 0 76
0.104866 0.233486 -0.377641 204 51 127
-0.478783 -0.129840 -0.234114 204 51 127
0.077403 0.549048 -0.449470 153 0 76
-0.285975 -0.147918 0.436252 153 0 76
-0.615279 -0.209518 0.096389 153 0 76
0.315583 -0.153956 0.277251 0 127 127
0.101841 -0.065368 -0.282839 204 51 127
0.017504 0.470381 -0.452789 204 51 127
-0.199967 0.258030 -0.357153 153 0 76
0.198474 -0.147918 0.252563 0 127 127
0.648229 -0.204679 0.030052 153 0 76
-0.348070 -0.147918 0.017850 0 127 127
-0.018940 0.388620 -0.426852 204 51 127
0.069459 -0.147918 0.604993 153 0 76
-0.495286 0.608074 -0.468194 204 51 127
-0.608979 -0.002785 -0.274418 204 51 127
-0.129646 -0.215293 0.499374 153 0 76
-0.236667 -0.215293 0.601992 153 0 76
-0.079626 0.628782 -0.503036 204 51 127
-0.234713 0.043751 -0.317454 204 51 127
-0.182987 -0.142038 -0.230245 204 51 127
0.605556 0.256292 -0.384876 204 51 127
0.479207 0.543760 -0.476066 204 51 127
0.145528 0.244554 -0.381152 204 51 127
-0.129964 -0.147918 0.031621 0 127 127
0.152646 -0.215293 0.240408 153 0 76
0.272596 -0.158305 0.707095 153 0 76
-0.115569 0.556846 -0.480217 204 51 127
-0.104670 -0.194298 0.705170 153 0 76
0.556908 -0.034238 -0.264441 153 0 76
0.044908 -0.215293 -0.001146 153 0 76
-0.595715 -0.210442 0.136037 153 0 76
-0.611481 -0.176143 0.174366 153 0 76
-0.282508 -0.209518 -0.164629 153 0 76
0.476602 -0.147918 -0.022660 0 127 127
0.140179 0.350541 -0.386500 153 0 76
-0.365693 0.436317 -0.441983 204 51 127
-0.165031 0.522380 -0.441010 153 0 76
-0.089655 -0.131036 -0.233734 204 51 127
0.220575 -0.147918 0.679139 153 0 76
0.227802 -0.147918 -0.155424 153 0 76
-0.117697 -0.103602 -0.270710 204 51 127
-0.503482 0.151584 -0.323387 153 0 76
0.057212 -0.209518 -0.151792 153 0 76
-0.452399 0.022230 -0.282354 153 0 76
0.229587 -0.180224 -0.246404 204 51 127
-0.099064 -0.156356 -0.217464 127 0 127
0.433743 -0.196612 -0.241206 204 51 127
-0.227984 0.518715 -0.468121 204 51 127
0.577235 -0.215293 -0.072048 153 0 76
0.197689 -0.147918 0.410474 153 0 76
0.548990 -0.215293 0.395427 153 0 76
-0.195151 -0.147918 0.399500 153 0 76
-0.103253 0.358212 -0.388933 153 0 76
0.291954 -0.152576 -0.205547 127 0 127
0.506687 0.652327 -0.509794 204 51 127
0.356181 -0.147918 0.525920 153 0 76
0.002317 -0.215293 0.059641 153 0 76
-0.594298 -0.152533 0.243214 0 127 127
-0.635351 -0.192909 0.543711 153 0 76
-0.637276 -0.162402 0.121254 153 0 76
0.305532 -0.215293 0.251507 153 0 76
-0.232553 -0.147918 0.001599 0 127 127
0.550361 -0.215293 0.189305 153 0 76
0.144307 -0.147918 0.651218 153 0 76
-0.301680 -0.160161 -0.043016 0 127 127
0.308160 0.547838 -0.449086 153 0 76
0.241062 -0.062019 -0.283901 204 51 127
-0.264935 0.108933 -0.338131 204 51 127
-0.271606 0.374350 -0.394052 153 0 76
-0.326381 -0.105227 -0.270195 204 51 127
-0.195435 -0.088846 -0.275391 204 51 127
0.151254 -0.160161 0.065281 0 127 127
-0.259505 0.455842 -0.448176 204 51 127
-0.101803 -0.215293 0.222421 153 0 76
-0.338042 0.608458 -0.496589 204 51 127
-0.597021 -0.147918 0.643567 153 0 76
-0.253960 -0.147918 0.274276 0 127 127
0.521387 -0.215293 -0.048782 153 0 76
0.091877 -0.215293 0.209912 153 0 76
-0.335169 -0.015058 -0.270525 153 0 76
-0.370057 -0.147918 0.560739 153 0 76
-0.306018 0.431161 -0.412074 153 0 76
0.092465 0.196827 -0.366012 204 51 127
0.338901 0.422814 -0.437699 204 51 127
0.327053 -0.215293 0.445947 153 0 76
0.353018 -0.215293 0.113672 153 0 76
0.085755 -0.147918 0.337157 0 127 127
0.316453 -0.150448 0.383447 153 0 76
-0.495732 -0.147918 0.190954 0 127 127
0.222146 -0.147918 0.546406 153 0 76
-0.297343 -0.209518 -0.138721 153 0 76
0.468771 -0.215293 0.043347 153 0 76
-0.636890 -0.191423 0.044641 153 0 76
0.160933 0.330781 -0.408505 204 51 127
-0.102861 -0.150367 0.478081 153 0 76
0.447997 -0.215293 -0.025205 153 0 76
-0.455933 0.402580 -0.431281 204 51 127
0.261580 -0.147918 -0.036901 0 127 127
0.616263 -0.150469 0.117613 153 0 76
0.245965 -0.147918 -0.145311 153 0 76
0.117557 0.531973 -0.444053 153 0 76
-0.418198 -0.215293 -0.048030 153 0 76
-0.374556 -0.147918 -0.015791 0 127 127
-0.231314 -0.039618 -0.262734 153 0 76
-0.415651 -0.215293 0.507420 153 0 76
-0.147707 -0.147918 0.307315 0 127 127
0.341499 -0.003320 -0.302522 204 51 127
0.617210 -0.163631 0.699823 153 0 76
0.331707 -0.147918 0.054637 0 127 127
-0.058925 -0.183150 -0.167380 153 0 76
-0.147157 -0.215293 0.330711 153 0 76
-0.226781 0.431070 -0.440318 204 51 127
0.266596 0.248647 -0.382450 204 51 127
-0.346013 0.017867 -0.309243 204 51 127
-0.632825 0.113327 -0.311251 204 51 127
-0.610916 0.330437 -0.408396 204 51 127
0.059915 -0.151496 -0.073694 153 0 76
0.345157 -0.147918 -0.134144 153 0 76
0.610667 0.202301 -0.367748 204 51 127
0.648229 -0.187829 0.467103 153 0 76
0.226473 -0.166167 0.707004 153 0 76
-0.295796 -0.209518 0.685661 153 0 76
-0.500502 -0.215293 0.075951 153 0 76
-0.491360 -0.147918 0.416518 153 0 76
-0.578372 -0.147918 0.580429 153 0 76
0.234190 0.082627 -0.329786 204 51 127
-0.381345 -0.215293 -0.004041 153 0 76
0.510466 0.556501 -0.480107 204 51 127
0.473103 0.263209 -0.387070 204 51 127
0.205444 -0.160088 0.175757 0 127 127
-0.138937 -0.147918 -0.165217 153 0 76
-0.632889 -0.147918 -0.009689 153 0 76
0.143226 -0.152813 0.370838 153 0 76
0.139756 0.613907 -0.470044 204 51 127
-0.030480 0.221396 -0.373806 204 51 127
0.045225 -0.150367 0.555198 76 0 153
-0.527191 0.387477 -0.398217 204 51 127
0.175270 -0.215293 0.419969 153 0 76
-0.596523 0.349122 -0.386050 204 51 127
0.627498 -0.181855 -0.146486 153 0 76
0.505208 -0.147918 0.525313 153 0 76
-0.061984 -0.060663 -0.284331 204 51 127
-0.014630 0.085789 -0.302515 153 0 76
-0.411210 -0.215293 0.574259 153 0 76
0.186814 -0.215293 -0.047718 153 0 76
-0.303906 0.180422 -0.360808 204 51 127
0.544976 0.526007 -0.470434 204 51 127
-0.374634 -0.214427 0.658727 153 0 76
0.220339 -0.147918 0.341915 0 127 127
0.016638 -0.006142 -0.301626 204 51 127
-0.071846 0.572543 -0.485196 204 51 127
-0.176071 -0.215293 0.002415 153 0 76
-0.192191 -0.147918 0.324262 0 127 127
-0.204946 -0.147918 0.529126 153 0 76
-0.578305 -0.209518 -0.134108 153 0 76
-0.245708 0.178845 -0.332034 153 0 76
-0.337374 -0.209518 -0.149860 153 0 76
0.221554 0.656410 -0.483527 204 51 127
0.268963 -0.147918 0.632158 153 0 76
-0.621757 -0.182888 0.449887 153 0 76
0.090514 0.474034 -0.425674 153 0 76
0.272880 0.073988 -0.327045 204 51 127
0.082042 -0.215293 0.166769 153 0 76
0.544957 0.080435 -0.329090 204 51 127
0.450775 -0.147918 0.294405 0 127 127
-0.482315 -0.147918 0.615950 153 0 76
0.568982 -0.215293 0.221198 153 0 76
0.205539 -0.204227 -0.238790 204 51 127
-0.363074 -0.215293 0.031223 153 0 76
0.552127 -0.147918 0.236661 0 127 127
0.122774 0.381014 -0.424440 204 51 127
0.645805 0.452334 -0.420286 204 51 127
0.151485 -0.147918 0.330481 0 127 127
0.105460 -0.158761 -0.031658 0 127 127
-0.006917 -0.215293 0.504142 153 0 76
-0.155201 -0.215293 0.634900 153 0 76
-0.530439 -0.215293 0.544955 153 0 76
-0.073498 0.206506 -0.369082 204 51 127
0.305763 0.497618 -0.461428 204 51 127
0.318224 0.104042 -0.308306 153 0 76
0.622468 -0.147918 0.565912 153 0 76
-0.057038 -0.079671 -0.250028 204 51 127
-0.571663 -0.147918 0.297183 0 127 127
-0.613889 -0.209518 0.410952 153 0 76
0.510827 -0.147918 0.335093 0 127 127
0.531870 0.594594 -0.463918 204 51 127
0.514769 0.448019 -0.445695 204 51 127
-0.106999 -0.215293 0.353928 153 0 76
-0.244361 -0.102128 -0.271178 204 51 127
0.602297 -0.211838 0.430844 153 0 76
-0.386239 -0.086515 -0.247857 204 51 127
0.168178 -0.147918 0.040586 0 127 127
-0.426740 -0.147918 0.158859 0 127 127
-0.209945 0.161411 -0.326504 153 0 76
0.173294 -0.153161 0.276320 0 127 127
0.628306 -0.149397 0.350663 153 0 76
0.208324 -0.215293 -0.059420 153 0 76
0.571321 0.226062 -0.375286 204 51 127
-0.460313 0.660323 -0.485893 204 51 127
0.586766 -0.147918 0.227486 0 127 127
0.243620 0.489951 -0.430723 153 0 76
-0.130999 -0.215293 0.541482 153 0 76
-0.445507 -0.158217 0.290836 0 127 127
-0.552748 0.103151 -0.308023 204 51 127
0.527034 -0.152428 0.348155 0 127 127
0.544166 0.410465 -0.433782 204 51 127
0.524795 0.298891 -0.398389 204 51 127
0.009683 -0.152801 -0.206258 127 0 127
-0.312851 0.276217 -0.362923 153 0 76
-0.346423 -0.215293 0.269690 153 0 76
0.085650 -0.215293 0.348216 153 0 76
-0.481982 -0.147918 -0.017420 0 127 127
0.064305 0.639946 -0.478304 204 51 127
0.484049 -0.147918 0.430404 153 0 76
-0.037016 -0.186427 -0.170713 153 0 76
0.625228 -0.182133 0.024747 153 0 76
0.070336 -0.215293 0.133756 153 0 76
0.126857 -0.215293 0.465948 153 0 76
0.585877 -0.147918 0.540243 153 0 76
-0.551105 0.425541 -0.410291 204 51 127
0.249056 -0.209518 -0.157514 153 0 76
-0.224179 0.157293 -0.353471 204 51 127
0.145275 -0.100475 -0.243429 204 51 127
0.468776 0.507151 -0.436179 153 0 76
0.434798 -0.215293 0.216161 153 0 76
-0.482824 -0.060306 -0.284445 204 51 127
-0.490489 -0.147918 -0.164252 127 0 127
-0.292377 -0.147918 0.561578 153 0 76
0.354105 -0.215293 0.068827 153 0 76
-0.162870 -0.024848 -0.267419 153 0 76
0.016855 -0.179033 0.705170 153 0 76
-0.544168 -0.181372 -0.246040 204 51 127
0.343021 0.494808 -0.460537 204 51 127
0.455453 0.021750 -0.310474 204 51 127
-0.418318 0.225324 -0.346778 153 0 76
-0.157902 0.171214 -0.357887 204 51 127
0.412536 -0.154987 0.143921 0 127 127
-0.471451 -0.150254 0.688730 153 0 76
0.260439 0.629038 -0.474844 204 51 127
0.091204 -0.198682 -0.240549 204 51 127
0.620917 -0.209518 0.160902 153 0 76
0.471576 -0.215293 0.186888 153 0 76
0.189832 0.557000 -0.451992 153 0 76
-0.442409 -0.209518 -0.155605 153 0 76
0.130429 -0.147918 -0.051082 0 127 127
0.047252 -0.150367 0.583929 153 76 0
-0.069055 -0.215293 0.068692 153 0 76
0.264781 -0.215293 0.135195 153 0 76
-0.608396 0.072605 -0.326606 204 51 127
0.344197 -0.215293 -0.003809 153 0 76
0.271697 -0.023163 -0.267954 153 0 76
-0.363990 0.625484 -0.501990 204 51 127
0.205506 -0.160161 0.198585 0 127 127
0.548741 -0.147918 0.409652 153 0 76
-0.351022 0.554785 -0.451290 153 0 76
-0.268454 0.446369 -0.416898 153 0 76
-0.158120 -0.086938 -0.275997 204 51 127
-0.161467 0.541282 -0.475280 204 51 127
