0.434897 -0.156867 0.383490 0.600000 0.300000 0.000000
0.208760 0.356901 0.038635 1.000000 0.000000 0.000000
0.302692 0.356901 -0.347721 1.000000 0.000000 0.000000
-0.570291 0.387307 0.065387 1.000000 0.000000 0.000000
0.365141 0.664671 -0.392938 1.000000 0.000000 0.000000
-0.492763 -0.096536 0.174167 1.000000 0.000000 0.000000
-0.512341 0.057062 0.262864 1.000000 0.000000 0.000000
0.273273 0.641684 0.089874 1.000000 0.000000 0.000000
0.133463 -0.407781 0.141445 0.500000 0.000000 0.500000
-0.489294 -0.584618 -0.392938 1.000000 0.000000 0.000000
-0.320703 -0.682887 0.376740 1.000000 0.000000 0.000000
0.515867 -0.033130 0.339457 1.000000 0.000000 0.000000
-0.570291 -0.251135 -0.429455 1.000000 0.000000 0.000000
-0.210032 -0.090142 -0.251202 1.000000 0.000000 0.000000
-0.424043 0.641684 -0.352264 1.000000 0.000000 0.000000
-0.199556 -0.123029 0.383490 0.600000 0.300000 0.000000
-0.118415 -0.090142 0.004347 1.000000 0.000000 0.000000
-0.512341 0.159102 0.151007 1.000000 0.000000 0.000000
0.115185 0.035984 0.394511 0.300000 0.000000 0.600000
0.201603 -0.018884 -0.034256 0.500000 0.500000 0.000000
-0.264592 -0.038814 -0.385462 1.000000 0.000000 0.000000
0.131078 -0.682887 0.298394 1.000000 0.000000 0.000000
-0.143788 -0.090142 -0.090780 1.000000 0.000000 0.000000
0.019222 0.600291 -0.196741 1.000000 0.000000 0.000000
0.184132 -0.574130 0.384587 0.600000 0.300000 0.000000
-0.556805 0.645585 -0.442610 1.000000 0.000000 0.000000
0.588709 0.128273 0.018473 1.000000 0.000000 0.000000
0.135204 -0.407781 -0.177280 0.500000 0.000000 0.500000
0.530759 -0.165148 -0.146159 1.000000 0.000000 0.000000
-0.253439 -0.018884 -0.118746 0.500000 0.500000 0.000000
0.302729 -0.218731 -0.442610 1.000000 0.000000 0.000000
0.141398 -0.682887 -0.094762 1.000000 0.000000 0.000000
0.588709 -0.025225 0.200696 1.000000 0.000000 0.000000
-0.304093 0.600291 -0.304431 1.000000 0.000000 0.000000
-0.430342 -0.420787 0.431587 0.600000 0.300000 0.000000
-0.570291 -0.613881 0.336917 1.000000 0.000000 0.000000
-0.308183 0.392932 0.384580 1.000000 0.000000 0.000000
0.565101 0.641684 -0.148110 1.000000 0.000000 0.000000
0.444276 -0.566147 0.383497 0.600000 0.300000 0.000000
-0.390766 -0.682887 0.134250 1.000000 0.000000 0.000000
-0.512341 -0.425184 -0.218975 1.000000 0.000000 0.000000
-0.117190 -0.682887 -0.361984 1.000000 0.000000 0.000000
-0.512341 -0.235209 -0.175708 1.000000 0.000000 0.000000
0.489037 0.640028 -0.329393 1.000000 0.000000 0.000000
0.078815 -0.168740 0.492604 0.800000 0.200000 0.500000
0.111697 0.356901 0.276775 1.000000 0.000000 0.000000
0.282606 -0.102123 -0.392938 1.000000 0.000000 0.000000
-0.512341 0.197537 0.223440 1.000000 0.000000 0.000000
0.453873 -0.090142 0.265172 1.000000 0.000000 0.000000
-0.280344 -0.682887 0.260088 1.000000 0.000000 0.000000
-0.524993 0.600291 -0.097791 1.000000 0.000000 0.000000
0.588709 -0.523711 0.249063 1.000000 0.000000 0.000000
0.576199 0.254163 -0.442610 1.000000 0.000000 0.000000
-0.570291 0.024382 0.123034 1.000000 0.000000 0.000000
0.224779 -0.633216 -0.067290 1.000000 0.000000 0.000000
0.588709 -0.506269 -0.118749 1.000000 0.000000 0.000000
0.111964 0.692614 -0.442610 1.000000 0.000000 0.000000
0.519406 0.600291 0.156096 1.000000 0.000000 0.000000
-0.341019 -0.119470 -0.392938 1.000000 0.000000 0.000000
-0.172926 -0.453708 -0.442610 1.000000 0.000000 0.000000
0.164894 0.356901 -0.097158 1.000000 0.000000 0.000000
-0.512341 -0.487558 0.152279 1.000000 0.000000 0.000000
0.391385 -0.090142 -0.215025 1.000000 0.000000 0.000000
0.179062 -0.633216 0.244941 1.000000 0.000000 0.000000
-0.002227 -0.090142 0.121903 1.000000 0.000000 0.000000
0.559511 0.640028 0.089045 1.000000 0.000000 0.000000
0.509680 0.724470 -0.437444 1.000000 0.000000 0.000000
-0.442086 0.641684 -0.220250 1.000000 0.000000 0.000000
0.140798 0.014369 -0.392938 1.000000 0.000000 0.000000
0.072545 0.640028 0.026825 1.000000 0.000000 0.000000
0.420974 0.571323 0.385247 1.000000 0.000000 0.000000
0.588709 0.567884 0.110159 1.000000 0.000000 0.000000
-0.512341 -0.284177 0.367613 1.000000 0.000000 0.000000
-0.570291 -0.211117 -0.270566 1.000000 0.000000 0.000000
-0.186486 0.356901 -0.156493 1.000000 0.000000 0.000000
-0.272333 0.356901 -0.047739 1.000000 0.000000 0.000000
-0.267378 -0.407781 0.112439 0.500000 0.000000 0.500000
-0.502958 0.274833 -0.442610 1.000000 0.000000 0.000000
-0.113575 -0.090142 0.203080 1.000000 0.000000 0.000000
0.042142 -0.090142 -0.330115 1.000000 0.000000 0.000000
0.480075 -0.616889 0.435387 0.600000 0.300000 0.000000
-0.512341 0.034405 -0.137611 1.000000 0.000000 0.000000
-0.097752 0.052511 -0.442610 1.000000 0.000000 0.000000
-0.336213 -0.358722 -0.367170 0.500000 0.000000 0.500000
0.065200 0.641684 -0.053182 1.000000 0.000000 0.000000
-0.512341 -0.297586 -0.376179 1.000000 0.000000 0.000000
0.031275 -0.633216 0.207489 1.000000 0.000000 0.000000
-0.310942 -0.407781 -0.022664 0.500000 0.000000 0.500000
-0.570291 -0.145455 -0.087892 1.000000 0.000000 0.000000
-0.194510 0.641684 0.006471 1.000000 0.000000 0.000000
-0.169437 0.248854 0.435386 0.300000 0.000000 0.600000
-0.051565 -0.054460 -0.442610 1.000000 0.000000 0.000000
-0.315288 -0.038814 0.035740 1.000000 0.000000 0.000000
-0.214022 0.110309 -0.392938 1.000000 0.000000 0.000000
-0.417796 0.656480 -0.442610 1.000000 0.000000 0.000000
0.230777 -0.090142 -0.002105 1.000000 0.000000 0.000000
0.530759 0.214532 0.001634 1.000000 0.000000 0.000000
-0.512341 0.135942 -0.144934 1.000000 0.000000 0.000000
-0.501458 -0.367367 0.435065 0.600000 0.300000 0.000000
-0.570291 -0.476079 -0.099932 1.000000 0.000000 0.000000
-0.570291 0.241307 0.244988 1.000000 0.000000 0.000000
0.514566 -0.682887 -0.417784 1.000000 0.000000 0.000000
-0.317427 0.057243 -0.442610 1.000000 0.000000 0.000000
-0.512341 -0.421486 -0.384678 1.000000 0.000000 0.000000
-0.570291 0.207716 -0.266883 1.000000 0.000000 0.000000
-0.263901 -0.308864 0.406353 0.300000 0.000000 0.600000
0.287036 -0.374706 -0.442610 1.000000 0.000000 0.000000
-0.224856 -0.208556 -0.392938 1.000000 0.000000 0.000000
0.169029 0.641684 0.177811 1.000000 0.000000 0.000000
-0.207152 -0.283727 -0.442610 1.000000 0.000000 0.000000
-0.010537 -0.145151 -0.392938 1.000000 0.000000 0.000000
-0.342789 -0.038814 0.152966 1.000000 0.000000 0.000000
-0.090616 0.182442 -0.442610 1.000000 0.000000 0.000000
-0.403777 0.600291 0.259345 1.000000 0.000000 0.000000
0.015127 0.131526 -0.442610 1.000000 0.000000 0.000000
0.256021 -0.682887 0.326106 1.000000 0.000000 0.000000
0.588709 0.081674 0.382024 1.000000 0.000000 0.000000
0.580081 -0.385081 -0.442610 1.000000 0.000000 0.000000
0.588709 -0.111041 0.082329 1.000000 0.000000 0.000000
-0.494110 -0.034899 -0.178750 1.000000 0.000000 0.000000
-0.133887 0.641684 0.112036 1.000000 0.000000 0.000000
-0.110397 -0.423842 0.407205 0.300000 0.000000 0.600000
0.375857 0.061292 -0.392938 1.000000 0.000000 0.000000
-0.495974 -0.682887 0.327734 1.000000 0.000000 0.000000
0.244620 -0.403296 0.335687 0.500000 0.000000 0.500000
0.202304 -0.090142 0.271281 1.000000 0.000000 0.000000
0.588709 -0.091488 -0.159693 1.000000 0.000000 0.000000
0.073358 -0.038814 -0.375966 1.000000 0.000000 0.000000
0.244645 0.341817 -0.392938 1.000000 0.000000 0.000000
-0.081046 -0.633216 -0.033498 1.000000 0.000000 0.000000
0.156525 0.631945 -0.442610 1.000000 0.000000 0.000000
0.024779 -0.682887 -0.265483 1.000000 0.000000 0.000000
0.065471 0.627115 0.457963 1.000000 0.000000 0.000000
0.351730 -0.090142 0.240726 1.000000 0.000000 0.000000
0.529357 -0.275123 0.435683 0.600000 0.300000 0.000000
-0.102864 -0.025017 -0.074209 0.500000 0.500000 0.000000
0.451043 -0.528280 -0.392938 1.000000 0.000000 0.000000
0.264213 0.205063 -0.442610 1.000000 0.000000 0.000000
0.520561 -0.617758 -0.074751 1.000000 0.000000 0.000000
0.588709 -0.009470 -0.434892 1.000000 0.000000 0.000000
0.511511 -0.101712 0.033847 1.000000 0.000000 0.000000
0.375692 -0.633216 0.122836 1.000000 0.000000 0.000000
0.588709 -0.353216 0.056671 1.000000 0.000000 0.000000
-0.389793 -0.407781 -0.030715 0.500000 0.000000 0.500000
-0.532279 0.246760 0.383490 0.300000 0.000000 0.600000
0.588709 0.040413 -0.239680 1.000000 0.000000 0.000000
-0.506480 -0.516628 0.234590 1.000000 0.000000 0.000000
0.520849 -0.111562 -0.371281 1.000000 0.000000 0.000000
0.285031 -0.407781 -0.247745 0.500000 0.000000 0.500000
0.532378 0.112075 -0.442610 1.000000 0.000000 0.000000
-0.247533 0.600291 -0.176909 1.000000 0.000000 0.000000
-0.130009 0.640028 -0.138321 1.000000 0.000000 0.000000
-0.332642 -0.313432 -0.442610 1.000000 0.000000 0.000000
-0.073038 -0.501596 -0.442610 1.000000 0.000000 0.000000
-0.516490 0.600291 0.050677 1.000000 0.000000 0.000000
0.099650 -0.486440 -0.442610 1.000000 0.000000 0.000000
0.328150 -0.487143 0.406303 0.300000 0.000000 0.600000
0.457970 -0.407781 0.021037 0.500000 0.000000 0.500000
-0.124827 0.640028 -0.269419 1.000000 0.000000 0.000000
0.268101 -0.682887 0.025584 1.000000 0.000000 0.000000
-0.149136 -0.518918 0.407205 0.300000 0.000000 0.600000
-0.186032 -0.407781 -0.188879 0.500000 0.000000 0.500000
-0.042730 0.356901 0.034635 1.000000 0.000000 0.000000
-0.064857 0.600291 -0.177902 1.000000 0.000000 0.000000
0.070360 0.224949 -0.442610 1.000000 0.000000 0.000000
-0.197259 0.641684 -0.236011 1.000000 0.000000 0.000000
-0.570291 -0.444998 0.103669 1.000000 0.000000 0.000000
0.001687 -0.179964 0.435683 0.600000 0.300000 0.000000
-0.512341 -0.427117 -0.308165 1.000000 0.000000 0.000000
-0.310033 0.545659 0.434721 0.600000 0.000000 0.300000
0.000739 -0.416970 0.407205 0.300000 0.000000 0.600000
-0.512341 -0.228659 0.285595 1.000000 0.000000 0.000000
0.550017 0.336377 0.435678 0.300000 0.000000 0.600000
0.077741 -0.015285 0.435275 0.300000 0.000000 0.600000
0.530759 -0.410478 0.341215 1.000000 0.000000 0.000000
0.588709 -0.193673 -0.182966 1.000000 0.000000 0.000000
0.530759 0.193198 -0.388975 1.000000 0.000000 0.000000
0.530759 0.319384 -0.148836 1.000000 0.000000 0.000000
-0.512341 0.162363 -0.387228 1.000000 0.000000 0.000000
0.023263 0.462279 0.434385 0.600000 0.000000 0.300000
0.421375 -0.682887 -0.349822 1.000000 0.000000 0.000000
0.063793 0.518860 -0.392938 1.000000 0.000000 0.000000
0.295009 0.641684 -0.155774 1.000000 0.000000 0.000000
-0.228293 0.451032 -0.442610 1.000000 0.000000 0.000000
0.242021 -0.182583 0.496400 0.800000 0.200000 0.500000
0.530759 0.267248 0.097356 1.000000 0.000000 0.000000
0.164378 -0.090142 0.356993 1.000000 0.000000 0.000000
-0.226243 -0.633216 0.352170 1.000000 0.000000 0.000000
0.227856 -0.018884 -0.215786 0.500000 0.500000 0.000000
0.372093 0.483707 0.385247 1.000000 0.000000 0.000000
0.134994 -0.018884 0.268493 0.500000 0.500000 0.000000
0.530759 -0.460088 0.248292 1.000000 0.000000 0.000000
-0.570291 -0.590725 -0.268629 1.000000 0.000000 0.000000
-0.570291 -0.509450 0.002113 1.000000 0.000000 0.000000
-0.292467 -0.407781 -0.269170 0.500000 0.000000 0.500000
0.588709 -0.361649 -0.301835 1.000000 0.000000 0.000000
0.435591 -0.407781 0.150608 0.500000 0.000000 0.500000
-0.098991 -0.211336 -0.392938 1.000000 0.000000 0.000000
-0.363294 0.529850 0.385247 1.000000 0.000000 0.000000
-0.442034 -0.200376 -0.392938 1.000000 0.000000 0.000000
-0.432792 -0.682887 0.059951 1.000000 0.000000 0.000000
-0.512341 0.094665 0.056255 1.000000 0.000000 0.000000
-0.065072 -0.170198 0.514092 0.800000 0.200000 0.500000
-0.433660 0.356901 -0.032548 1.000000 0.000000 0.000000
-0.570291 0.126936 -0.198562 1.000000 0.000000 0.000000
-0.387845 0.356901 0.323023 1.000000 0.000000 0.000000
0.192742 0.261008 0.435683 0.300000 0.000000 0.600000
0.298903 -0.090142 -0.120283 1.000000 0.000000 0.000000
0.400754 0.724470 -0.429228 1.000000 0.000000 0.000000
0.530759 -0.319121 -0.186321 1.000000 0.000000 0.000000
-0.055806 0.640028 -0.029145 1.000000 0.000000 0.000000
0.588709 -0.028814 0.006649 1.000000 0.000000 0.000000
-0.361173 0.278722 0.383490 0.300000 0.000000 0.600000
-0.570291 -0.378536 -0.039113 1.000000 0.000000 0.000000
0.406741 -0.682887 0.217059 1.000000 0.000000 0.000000
-0.021849 -0.086724 0.433293 0.600000 0.300000 0.000000
-0.369049 -0.547681 0.403101 0.600000 0.300000 0.000000
0.439245 0.257653 -0.392938 1.000000 0.000000 0.000000
0.349897 0.640028 -0.043982 1.000000 0.000000 0.000000
-0.230837 0.237022 -0.442610 1.000000 0.000000 0.000000
-0.512341 -0.004831 0.184879 1.000000 0.000000 0.000000
0.366647 0.529283 -0.442610 1.000000 0.000000 0.000000
0.135567 -0.431693 -0.392938 1.000000 0.000000 0.000000
-0.530203 -0.682887 -0.168329 1.000000 0.000000 0.000000
0.581682 0.575406 0.421794 1.000000 0.000000 0.000000
0.264174 -0.218805 0.431027 0.600000 0.300000 0.000000
-0.219980 -0.682887 0.170299 1.000000 0.000000 0.000000
-0.245201 -0.038814 -0.293358 1.000000 0.000000 0.000000
-0.487527 -0.037549 -0.373456 1.000000 0.000000 0.000000
0.194751 -0.682887 -0.202417 1.000000 0.000000 0.000000
0.431469 -0.038814 -0.251079 1.000000 0.000000 0.000000
0.077380 -0.256711 -0.442610 1.000000 0.000000 0.000000
0.130688 -0.682887 0.005862 1.000000 0.000000 0.000000
0.300707 0.641684 0.381226 1.000000 0.000000 0.000000
-0.507981 -0.021484 0.001912 1.000000 0.000000 0.000000
0.417016 -0.083073 -0.392938 1.000000 0.000000 0.000000
-0.570291 -0.235615 -0.108203 1.000000 0.000000 0.000000
0.328738 -0.682887 -0.185932 1.000000 0.000000 0.000000
-0.208197 0.600291 0.427216 1.000000 0.000000 0.000000
0.003928 -0.018884 -0.325948 0.500000 0.500000 0.000000
0.518912 0.656406 -0.392938 1.000000 0.000000 0.000000
0.023155 -0.090142 -0.064777 1.000000 0.000000 0.000000
-0.570291 -0.614693 -0.059603 1.000000 0.000000 0.000000
0.033187 -0.018884 0.157006 0.500000 0.500000 0.000000
0.496491 -0.682887 0.260553 1.000000 0.000000 0.000000
0.180822 -0.679854 0.385247 1.000000 0.000000 0.000000
0.588709 0.327650 -0.384468 1.000000 0.000000 0.000000
-0.393855 -0.090142 -0.065746 1.000000 0.000000 0.000000
0.482571 -0.038814 -0.085787 1.000000 0.000000 0.000000
0.450136 -0.423361 -0.392938 1.000000 0.000000 0.000000
-0.271549 -0.682887 -0.018101 1.000000 0.000000 0.000000
-0.232670 -0.366416 -0.392938 1.000000 0.000000 0.000000
-0.500410 0.392464 0.385247 1.000000 0.000000 0.000000
-0.070020 -0.025017 0.193876 0.500000 0.500000 0.000000
-0.507816 -0.546843 0.434683 0.600000 0.300000 0.000000
-0.570291 -0.521544 0.183728 1.000000 0.000000 0.000000
0.085016 0.356901 -0.328905 1.000000 0.000000 0.000000
0.198331 0.356901 0.143714 1.000000 0.000000 0.000000
0.588709 0.386293 0.186638 1.000000 0.000000 0.000000
-0.507282 -0.471082 -0.442610 1.000000 0.000000 0.000000
0.408844 0.395425 -0.442610 1.000000 0.000000 0.000000
0.234474 0.294882 0.383490 0.300000 0.000000 0.600000
-0.348814 0.318783 -0.392938 1.000000 0.000000 0.000000
-0.268559 0.026085 0.427041 0.300000 0.000000 0.600000
0.377357 0.600291 0.171749 1.000000 0.000000 0.000000
-0.570291 0.480649 -0.374934 1.000000 0.000000 0.000000
-0.390559 0.640028 0.057752 1.000000 0.000000 0.000000
0.379381 0.315391 -0.442610 1.000000 0.000000 0.000000
-0.177614 -0.025017 0.051342 0.500000 0.500000 0.000000
0.277895 -0.682887 0.186698 1.000000 0.000000 0.000000
0.588709 0.479506 0.238867 1.000000 0.000000 0.000000
-0.081522 -0.633216 -0.150142 1.000000 0.000000 0.000000
-0.418951 0.001808 -0.392938 1.000000 0.000000 0.000000
0.397993 0.641684 0.307237 1.000000 0.000000 0.000000
-0.257792 0.445411 0.385247 1.000000 0.000000 0.000000
-0.015406 -0.682887 0.154880 1.000000 0.000000 0.000000
-0.025850 0.698761 -0.392938 1.000000 0.000000 0.000000
-0.570291 0.185777 0.289530 1.000000 0.000000 0.000000
-0.108764 -0.633216 -0.267746 1.000000 0.000000 0.000000
-0.513188 0.640028 -0.222702 1.000000 0.000000 0.000000
0.588709 0.362013 0.311923 1.000000 0.000000 0.000000
-0.570291 0.470138 0.289861 1.000000 0.000000 0.000000
-0.341759 0.356901 0.200317 1.000000 0.000000 0.000000
-0.513853 -0.682887 -0.040011 1.000000 0.000000 0.000000
0.588709 -0.200343 0.342467 1.000000 0.000000 0.000000
0.346286 0.388282 0.385247 1.000000 0.000000 0.000000
-0.027116 0.070362 0.403691 0.300000 0.000000 0.600000
0.530759 -0.169312 -0.231737 1.000000 0.000000 0.000000
-0.484518 0.640028 0.387163 1.000000 0.000000 0.000000
-0.512341 0.008094 -0.292124 1.000000 0.000000 0.000000
0.237929 0.600291 0.151230 1.000000 0.000000 0.000000
0.088657 -0.090142 -0.012949 1.000000 0.000000 0.000000
-0.570291 0.572078 0.095191 1.000000 0.000000 0.000000
-0.321166 0.641684 -0.196672 1.000000 0.000000 0.000000
-0.101752 0.588531 0.385247 1.000000 0.000000 0.000000
0.142168 -0.220428 0.430518 0.600000 0.300000 0.000000
-0.570291 0.471000 -0.215518 1.000000 0.000000 0.000000
0.485911 0.641684 -0.075152 1.000000 0.000000 0.000000
0.588709 0.037747 0.150511 1.000000 0.000000 0.000000
0.298090 -0.583808 0.430527 0.600000 0.300000 0.000000
0.254103 -0.440834 0.403690 0.600000 0.300000 0.000000
-0.197143 -0.682887 0.053789 1.000000 0.000000 0.000000
-0.512341 -0.563942 0.102792 1.000000 0.000000 0.000000
0.026505 0.322471 0.435577 0.300000 0.000000 0.600000
-0.570291 0.400496 0.264521 1.000000 0.000000 0.000000
0.050514 -0.407781 -0.047011 0.500000 0.000000 0.500000
-0.502440 0.600291 0.222397 1.000000 0.000000 0.000000
0.302171 0.450068 -0.392938 1.000000 0.000000 0.000000
0.530759 -0.390603 0.182537 1.000000 0.000000 0.000000
0.588709 0.299233 0.350730 1.000000 0.000000 0.000000
-0.177947 0.600291 0.330980 1.000000 0.000000 0.000000
-0.019024 -0.407781 -0.108579 0.500000 0.000000 0.500000
-0.570291 -0.590752 0.043130 1.000000 0.000000 0.000000
0.588709 0.039970 -0.009410 1.000000 0.000000 0.000000
-0.072382 -0.358722 0.336352 0.500000 0.000000 0.500000
0.588709 -0.224362 -0.063929 1.000000 0.000000 0.000000
-0.494853 -0.635587 0.383647 0.600000 0.300000 0.000000
0.449815 0.420515 0.384118 1.000000 0.000000 0.000000
0.114938 -0.399429 0.403690 0.600000 0.300000 0.000000
-0.246085 0.279099 0.435450 0.300000 0.000000 0.600000
0.588709 0.228345 0.150207 1.000000 0.000000 0.000000
0.203746 0.600291 -0.370851 1.000000 0.000000 0.000000
0.588709 0.090202 -0.360965 1.000000 0.000000 0.000000
-0.017665 -0.535596 -0.392938 1.000000 0.000000 0.000000
0.316678 -0.682887 -0.329548 1.000000 0.000000 0.000000
-0.173901 -0.018884 0.178154 0.500000 0.500000 0.000000
0.335933 -0.038814 0.161027 1.000000 0.000000 0.000000
0.530759 0.148497 -0.046021 1.000000 0.000000 0.000000
0.420504 -0.090142 0.020156 1.000000 0.000000 0.000000
-0.570291 0.258036 -0.367111 1.000000 0.000000 0.000000
0.140586 -0.215074 -0.442610 1.000000 0.000000 0.000000
-0.328897 -0.090142 0.361307 1.000000 0.000000 0.000000
0.102051 -0.584337 0.383532 0.600000 0.300000 0.000000
0.510978 -0.682887 0.102230 1.000000 0.000000 0.000000
-0.570291 0.105902 -0.370722 1.000000 0.000000 0.000000
0.391011 -0.682887 -0.092298 1.000000 0.000000 0.000000
-0.570291 0.118771 0.137427 1.000000 0.000000 0.000000
-0.284149 -0.090142 0.072060 1.000000 0.000000 0.000000
-0.512341 -0.137086 0.274646 1.000000 0.000000 0.000000
-0.004392 -0.017842 0.435648 0.300000 0.000000 0.600000
-0.530336 0.061546 0.383490 0.300000 0.000000 0.600000
0.152859 0.557813 -0.442610 1.000000 0.000000 0.000000
-0.493121 0.205451 -0.442610 1.000000 0.000000 0.000000
-0.570291 -0.020542 0.375586 1.000000 0.000000 0.000000
0.458115 -0.151227 0.449328 0.800000 0.200000 0.500000
0.588709 0.148882 0.277222 1.000000 0.000000 0.000000
-0.363085 -0.095531 0.435378 0.600000 0.300000 0.000000
-0.404137 0.356901 -0.305600 1.000000 0.000000 0.000000
-0.570291 -0.123818 -0.336917 1.000000 0.000000 0.000000
-0.030683 -0.407781 -0.232259 0.500000 0.000000 0.500000
-0.570291 0.447434 -0.078325 1.000000 0.000000 0.000000
-0.570291 0.538618 -0.168287 1.000000 0.000000 0.000000
0.376057 -0.174152 0.473637 0.800000 0.200000 0.500000
0.153541 -0.025017 -0.209729 0.500000 0.500000 0.000000
-0.481368 0.600291 -0.440975 1.000000 0.000000 0.000000
0.402996 -0.281246 -0.392938 1.000000 0.000000 0.000000
0.529913 -0.133110 0.133085 1.000000 0.000000 0.000000
0.224917 0.702081 -0.442610 1.000000 0.000000 0.000000
0.530759 -0.302162 0.325739 1.000000 0.000000 0.000000
0.148682 0.138160 -0.392938 1.000000 0.000000 0.000000
0.171655 -0.633216 0.126912 1.000000 0.000000 0.000000
0.588709 0.273423 -0.111760 1.000000 0.000000 0.000000
-0.002374 0.580140 0.385247 1.000000 0.000000 0.000000
0.588709 0.228839 0.231233 1.000000 0.000000 0.000000
0.241540 -0.090142 -0.175397 1.000000 0.000000 0.000000
-0.394499 -0.633216 -0.020525 1.000000 0.000000 0.000000
-0.512341 -0.387432 -0.149637 1.000000 0.000000 0.000000
-0.170031 0.600291 0.261954 1.000000 0.000000 0.000000
-0.570291 0.141780 -0.055905 1.000000 0.000000 0.000000
0.212555 -0.123796 -0.392938 1.000000 0.000000 0.000000
-0.117218 -0.108618 0.383490 0.600000 0.300000 0.000000
-0.510152 -0.118709 0.036074 1.000000 0.000000 0.000000
0.588709 -0.617872 -0.416493 1.000000 0.000000 0.000000
-0.251251 -0.633216 -0.341531 1.000000 0.000000 0.000000
-0.329913 0.356901 0.119312 1.000000 0.000000 0.000000
-0.105519 -0.021373 0.298123 0.500000 0.500000 0.000000
0.007710 0.641684 0.234098 1.000000 0.000000 0.000000
0.511144 -0.101391 -0.035418 1.000000 0.000000 0.000000
0.454952 0.079643 -0.442610 1.000000 0.000000 0.000000
-0.424864 0.395189 -0.392938 1.000000 0.000000 0.000000
0.530759 0.156195 -0.247007 1.000000 0.000000 0.000000
0.530759 0.126631 0.217364 1.000000 0.000000 0.000000
0.194774 -0.400943 -0.343379 0.500000 0.000000 0.500000
0.075226 -0.633216 -0.170416 1.000000 0.000000 0.000000
0.530759 -0.237322 -0.270646 1.000000 0.000000 0.000000
0.311969 -0.280971 -0.392938 1.000000 0.000000 0.000000
0.241985 -0.018884 0.175350 0.500000 0.500000 0.000000
-0.570291 0.631774 0.283621 1.000000 0.000000 0.000000
0.125277 -0.025017 0.199049 0.500000 0.500000 0.000000
0.530759 0.118401 0.358755 1.000000 0.000000 0.000000
-0.570291 0.003424 -0.014443 1.000000 0.000000 0.000000
0.588709 0.158574 -0.101955 1.000000 0.000000 0.000000
0.588709 -0.133975 0.224106 1.000000 0.000000 0.000000
-0.094862 0.385033 -0.392938 1.000000 0.000000 0.000000
0.022589 0.356901 0.100985 1.000000 0.000000 0.000000
-0.088398 0.640028 0.172679 1.000000 0.000000 0.000000
0.530759 -0.228621 -0.345102 1.000000 0.000000 0.000000
-0.512341 0.292728 0.125222 1.000000 0.000000 0.000000
-0.048558 -0.090142 0.266006 1.000000 0.000000 0.000000
-0.147206 -0.073826 -0.392938 1.000000 0.000000 0.000000
-0.570291 0.280901 -0.274098 1.000000 0.000000 0.000000
-0.128611 0.721195 -0.392938 1.000000 0.000000 0.000000
0.431022 0.600291 0.112003 1.000000 0.000000 0.000000
0.481842 0.462348 0.434701 1.000000 0.000000 0.000000
-0.175533 0.662175 -0.442610 1.000000 0.000000 0.000000
0.069541 0.511555 0.384118 1.000000 0.000000 0.000000
0.432342 -0.604985 -0.392938 1.000000 0.000000 0.000000
-0.115616 0.096665 -0.392938 1.000000 0.000000 0.000000
-0.135150 -0.018884 -0.290352 0.500000 0.500000 0.000000
0.224042 -0.682887 -0.271383 1.000000 0.000000 0.000000
0.550449 0.427499 -0.442610 1.000000 0.000000 0.000000
-0.186544 -0.633216 -0.060338 1.000000 0.000000 0.000000
-0.512341 0.099554 -0.223469 1.000000 0.000000 0.000000
-0.531622 -0.682887 0.119487 1.000000 0.000000 0.000000
-0.428093 -0.607771 0.435161 0.600000 0.300000 0.000000
-0.284402 0.356901 -0.382130 1.000000 0.000000 0.000000
0.588709 0.497774 0.100406 1.000000 0.000000 0.000000
0.295255 0.497925 0.384118 1.000000 0.000000 0.000000
0.390100 0.600291 -0.252678 1.000000 0.000000 0.000000
0.040303 -0.407781 -0.234352 0.500000 0.000000 0.500000
0.530759 0.049913 0.318653 1.000000 0.000000 0.000000
0.388543 0.292110 0.383490 0.300000 0.000000 0.600000
0.213105 -0.052964 0.411201 0.300000 0.000000 0.600000
0.005458 0.356901 -0.200178 1.000000 0.000000 0.000000
0.067208 0.200155 0.391323 0.300000 0.000000 0.600000
0.104891 0.353152 -0.442610 1.000000 0.000000 0.000000
0.159989 -0.025017 0.077383 0.500000 0.500000 0.000000
-0.324541 0.151263 0.403690 0.300000 0.000000 0.600000
0.234025 0.078486 -0.392938 1.000000 0.000000 0.000000
0.089193 -0.633216 -0.269354 1.000000 0.000000 0.000000
-0.570291 -0.123504 0.370322 1.000000 0.000000 0.000000
0.287888 -0.633216 0.258752 1.000000 0.000000 0.000000
0.530759 0.191729 0.365264 1.000000 0.000000 0.000000
0.125139 0.356901 -0.187871 1.000000 0.000000 0.000000
0.292167 0.600291 0.257372 1.000000 0.000000 0.000000
0.203378 0.565473 0.434386 1.000000 0.000000 0.000000
0.435277 -0.407781 -0.077390 0.500000 0.000000 0.500000
0.200639 0.600291 -0.237759 1.000000 0.000000 0.000000
0.078867 0.396196 0.434216 1.000000 0.000000 0.000000
0.530759 -0.524436 -0.390687 1.000000 0.000000 0.000000
0.202908 -0.171350 0.435683 0.600000 0.300000 0.000000
0.065084 0.356901 0.356051 1.000000 0.000000 0.000000
-0.438037 -0.633216 0.132625 1.000000 0.000000 0.000000
-0.570291 -0.667877 0.187996 1.000000 0.000000 0.000000
0.588709 -0.503695 -0.293975 1.000000 0.000000 0.000000
0.530759 -0.553707 -0.218637 1.000000 0.000000 0.000000
0.246715 -0.038814 -0.314686 1.000000 0.000000 0.000000
0.511001 -0.035847 -0.269148 1.000000 0.000000 0.000000
0.361669 0.641684 -0.141432 1.000000 0.000000 0.000000
0.588709 0.591211 -0.402610 1.000000 0.000000 0.000000
-0.293677 -0.038814 -0.175331 1.000000 0.000000 0.000000
0.474610 -0.038814 0.219403 1.000000 0.000000 0.000000
0.126092 -0.078486 -0.392938 1.000000 0.000000 0.000000
-0.301248 -0.633216 0.113657 1.000000 0.000000 0.000000
-0.306961 -0.603673 0.383490 0.600000 0.300000 0.000000
-0.512341 -0.420418 0.140944 1.000000 0.000000 0.000000
0.588709 0.444412 0.374576 1.000000 0.000000 0.000000
0.530759 -0.360717 -0.115659 1.000000 0.000000 0.000000
-0.512341 -0.549573 -0.142875 1.000000 0.000000 0.000000
-0.266765 -0.633216 -0.122314 1.000000 0.000000 0.000000
0.070521 0.085646 0.407205 0.600000 0.000000 0.300000
0.352932 0.356901 0.301072 1.000000 0.000000 0.000000
0.396846 0.356901 0.082107 1.000000 0.000000 0.000000
-0.184498 -0.358722 0.339575 0.500000 0.000000 0.500000
-0.570291 0.012241 -0.110042 1.000000 0.000000 0.000000
-0.075473 -0.090142 -0.165242 1.000000 0.000000 0.000000
0.508380 -0.237126 0.383490 0.600000 0.300000 0.000000
-0.570291 -0.524783 -0.285749 1.000000 0.000000 0.000000
-0.167385 -0.682887 -0.157338 1.000000 0.000000 0.000000
0.180940 0.465296 -0.442610 1.000000 0.000000 0.000000
-0.057953 -0.646828 0.426268 0.600000 0.300000 0.000000
-0.462781 -0.381786 0.300541 0.500000 0.000000 0.500000
-0.102001 -0.090142 0.136253 1.000000 0.000000 0.000000
0.131407 0.421745 -0.392938 1.000000 0.000000 0.000000
-0.457785 0.258204 0.383490 0.300000 0.000000 0.600000
0.588709 -0.390561 -0.210737 1.000000 0.000000 0.000000
-0.294518 0.600291 -0.057257 1.000000 0.000000 0.000000
0.427678 0.356901 -0.362563 1.000000 0.000000 0.000000
0.130233 0.641684 0.281927 1.000000 0.000000 0.000000
0.058578 0.641684 0.310546 1.000000 0.000000 0.000000
0.530759 -0.538161 -0.011498 1.000000 0.000000 0.000000
-0.570291 -0.155136 0.173152 1.000000 0.000000 0.000000
0.205049 0.640028 0.282277 1.000000 0.000000 0.000000
0.588709 0.439578 -0.030198 1.000000 0.000000 0.000000
-0.570291 -0.070354 0.083399 1.000000 0.000000 0.000000
-0.049514 -0.090142 -0.346838 1.000000 0.000000 0.000000
-0.347835 0.435324 -0.392938 1.000000 0.000000 0.000000
0.118586 -0.044947 -0.275028 1.000000 0.000000 0.000000
-0.389125 -0.530805 -0.392938 1.000000 0.000000 0.000000
-0.394572 -0.086847 -0.442610 1.000000 0.000000 0.000000
0.290179 0.243939 -0.392938 1.000000 0.000000 0.000000
-0.010253 0.341014 -0.442610 1.000000 0.000000 0.000000
-0.263868 0.356901 0.348750 1.000000 0.000000 0.000000
0.588709 -0.424725 -0.271510 1.000000 0.000000 0.000000
0.187660 -0.407781 0.209776 0.500000 0.000000 0.500000
0.247350 -0.612620 -0.392938 1.000000 0.000000 0.000000
0.326618 -0.633216 -0.281770 1.000000 0.000000 0.000000
-0.283195 -0.090142 0.223660 1.000000 0.000000 0.000000
0.505815 0.340559 0.383492 0.300000 0.000000 0.600000
-0.342121 -0.202407 0.383490 0.600000 0.300000 0.000000
-0.457503 -0.022062 0.435091 0.300000 0.000000 0.600000
0.381981 -0.407781 0.266030 0.500000 0.000000 0.500000
0.406152 -0.229558 -0.442610 1.000000 0.000000 0.000000
0.386550 -0.038814 -0.171546 1.000000 0.000000 0.000000
0.125790 0.640028 -0.326260 1.000000 0.000000 0.000000
0.324920 -0.115923 0.435683 0.600000 0.300000 0.000000
0.364845 -0.090142 0.068229 1.000000 0.000000 0.000000
-0.570291 0.366388 -0.052016 1.000000 0.000000 0.000000
0.524273 -0.116923 0.331796 1.000000 0.000000 0.000000
0.571804 -0.529329 0.435038 0.600000 0.300000 0.000000
-0.570291 0.300652 -0.121520 1.000000 0.000000 0.000000
-0.570291 0.259928 -0.189256 1.000000 0.000000 0.000000
-0.512341 0.161373 0.023623 1.000000 0.000000 0.000000
0.010569 -0.620365 -0.392938 1.000000 0.000000 0.000000
0.114885 -0.633216 0.174681 1.000000 0.000000 0.000000
0.588709 0.086482 0.310331 1.000000 0.000000 0.000000
0.166547 0.640028 0.047731 1.000000 0.000000 0.000000
0.379899 -0.146508 -0.392938 1.000000 0.000000 0.000000
0.309697 -0.407781 -0.157277 0.500000 0.000000 0.500000
-0.074827 0.641684 -0.387147 1.000000 0.000000 0.000000
-0.060379 -0.682887 -0.319348 1.000000 0.000000 0.000000
-0.570291 -0.405391 -0.189162 1.000000 0.000000 0.000000
0.190289 0.356901 0.360380 1.000000 0.000000 0.000000
-0.172453 0.356901 -0.272316 1.000000 0.000000 0.000000
-0.506208 -0.525198 0.031861 1.000000 0.000000 0.000000
-0.301057 0.640028 0.241376 1.000000 0.000000 0.000000
-0.512341 0.113246 0.226692 1.000000 0.000000 0.000000
-0.342488 -0.682887 -0.126802 1.000000 0.000000 0.000000
-0.184480 -0.682887 0.368015 1.000000 0.000000 0.000000
0.530759 0.259148 -0.320424 1.000000 0.000000 0.000000
0.523094 -0.212897 0.243348 1.000000 0.000000 0.000000
-0.070325 0.476937 -0.392938 1.000000 0.000000 0.000000
0.523094 -0.527351 0.209463 1.000000 0.000000 0.000000
-0.570291 -0.323850 -0.302078 1.000000 0.000000 0.000000
-0.167752 0.544880 -0.392938 1.000000 0.000000 0.000000
-0.368025 0.356901 -0.170746 1.000000 0.000000 0.000000
-0.564289 -0.615107 0.416352 0.600000 0.300000 0.000000
0.280327 0.240802 0.435681 0.300000 0.000000 0.600000
0.523733 0.015589 -0.442610 1.000000 0.000000 0.000000
0.511521 -0.682887 -0.318659 1.000000 0.000000 0.000000
0.217846 0.535365 -0.392938 1.000000 0.000000 0.000000
0.224251 -0.682887 0.091910 1.000000 0.000000 0.000000
0.057540 -0.682887 0.244074 1.000000 0.000000 0.000000
-0.216455 0.356901 0.252049 1.000000 0.000000 0.000000
0.034232 -0.358722 -0.345173 0.500000 0.000000 0.500000
0.530759 -0.302167 -0.255709 1.000000 0.000000 0.000000
0.276775 -0.510526 -0.442610 1.000000 0.000000 0.000000
0.435633 -0.682887 -0.007753 1.000000 0.000000 0.000000
0.530759 0.089028 -0.241928 1.000000 0.000000 0.000000
-0.427400 -0.090142 -0.184566 1.000000 0.000000 0.000000
-0.512341 -0.435463 -0.082809 1.000000 0.000000 0.000000
0.530039 -0.597407 0.335982 1.000000 0.000000 0.000000
-0.335385 0.600291 0.047863 1.000000 0.000000 0.000000
-0.570291 -0.024747 0.277534 1.000000 0.000000 0.000000
0.311234 -0.025017 0.026057 0.500000 0.500000 0.000000
-0.217416 -0.082535 -0.442610 1.000000 0.000000 0.000000
-0.512341 0.310992 0.375583 1.000000 0.000000 0.000000
-0.031129 0.196628 0.396142 0.300000 0.000000 0.600000
-0.260643 0.000970 -0.442610 1.000000 0.000000 0.000000
-0.491276 -0.625048 0.212408 1.000000 0.000000 0.000000
-0.081022 -0.682887 0.218405 1.000000 0.000000 0.000000
0.588709 -0.524766 0.315407 1.000000 0.000000 0.000000
0.226102 0.600291 -0.115216 1.000000 0.000000 0.000000
-0.157371 -0.502272 -0.392938 1.000000 0.000000 0.000000
0.041078 -0.025017 0.000128 0.500000 0.500000 0.000000
-0.570291 0.007700 -0.184661 1.000000 0.000000 0.000000
-0.313644 -0.415423 -0.392938 1.000000 0.000000 0.000000
0.522344 -0.363322 -0.378130 0.500000 0.000000 0.500000
-0.455057 -0.038814 -0.083367 1.000000 0.000000 0.000000
0.528677 0.418229 0.385247 1.000000 0.000000 0.000000
0.524023 -0.025498 -0.194336 1.000000 0.000000 0.000000
0.489565 0.641684 0.214499 1.000000 0.000000 0.000000
-0.188090 0.356901 -0.001200 1.000000 0.000000 0.000000
-0.317946 -0.633216 -0.164444 1.000000 0.000000 0.000000
-0.410896 -0.633216 -0.221753 1.000000 0.000000 0.000000
-0.021825 0.276460 -0.392938 1.000000 0.000000 0.000000
-0.127692 -0.358722 0.377009 0.500000 0.000000 0.500000
-0.242252 -0.407781 -0.061158 0.500000 0.000000 0.500000
-0.420948 0.576567 0.434054 1.000000 0.000000 0.000000
-0.570291 -0.451476 0.272074 1.000000 0.000000 0.000000
-0.062418 0.388934 0.428450 1.000000 0.000000 0.000000
0.530759 -0.445398 0.110023 1.000000 0.000000 0.000000
0.000395 -0.633216 0.025402 1.000000 0.000000 0.000000
-0.548089 0.640028 -0.315253 1.000000 0.000000 0.000000
-0.210540 0.003067 -0.392938 1.000000 0.000000 0.000000
0.316559 -0.358722 0.351187 0.500000 0.000000 0.500000
0.530759 0.282282 0.246423 1.000000 0.000000 0.000000
-0.125986 0.477459 0.434054 0.600000 0.000000 0.300000
0.007536 -0.339419 0.407205 0.300000 0.000000 0.600000
-0.132623 0.301629 -0.392938 1.000000 0.000000 0.000000
0.430218 0.114049 0.418990 0.300000 0.000000 0.600000
-0.426255 0.078407 -0.392938 1.000000 0.000000 0.000000
-0.374964 0.356901 -0.090794 1.000000 0.000000 0.000000
-0.570291 0.126584 0.318854 1.000000 0.000000 0.000000
-0.558064 -0.682887 -0.306623 1.000000 0.000000 0.000000
0.394384 0.366112 0.430240 0.300000 0.000000 0.600000
-0.136853 -0.090142 0.067550 1.000000 0.000000 0.000000
-0.496030 -0.682887 0.041694 1.000000 0.000000 0.000000
0.102827 -0.018884 0.136682 0.500000 0.500000 0.000000
0.588709 -0.625766 -0.273387 1.000000 0.000000 0.000000
-0.326177 -0.038814 -0.254071 1.000000 0.000000 0.000000
-0.396366 0.157005 -0.392938 1.000000 0.000000 0.000000
-0.353395 0.666582 -0.392938 1.000000 0.000000 0.000000
-0.498834 -0.196411 -0.442610 1.000000 0.000000 0.000000
-0.432671 -0.090142 0.029499 1.000000 0.000000 0.000000
0.473519 -0.407781 -0.222547 0.500000 0.000000 0.500000
0.588709 -0.439735 0.163806 1.000000 0.000000 0.000000
-0.291267 0.600291 -0.397703 1.000000 0.000000 0.000000
0.472774 -0.633216 -0.127753 1.000000 0.000000 0.000000
-0.442958 -0.641393 -0.442610 1.000000 0.000000 0.000000
-0.570291 0.519535 0.205068 1.000000 0.000000 0.000000
0.035565 0.600291 0.082728 1.000000 0.000000 0.000000
0.156684 -0.633216 -0.029216 1.000000 0.000000 0.000000
0.303508 -0.666812 0.385247 1.000000 0.000000 0.000000
-0.033096 -0.682887 0.303954 1.000000 0.000000 0.000000
0.271846 0.640028 -0.007179 1.000000 0.000000 0.000000
-0.512703 -0.499087 0.383490 0.600000 0.300000 0.000000
0.530759 -0.311169 0.122407 1.000000 0.000000 0.000000
-0.079916 -0.560527 0.398859 0.600000 0.300000 0.000000
-0.180859 -0.164104 0.435350 0.600000 0.300000 0.000000
0.547175 0.641684 0.008243 1.000000 0.000000 0.000000
-0.505625 -0.363322 0.095397 0.500000 0.000000 0.500000
0.231057 -0.633216 0.205139 1.000000 0.000000 0.000000
0.108357 -0.551338 -0.442610 1.000000 0.000000 0.000000
-0.208839 -0.018884 0.122777 0.500000 0.500000 0.000000
-0.180136 0.327528 0.434682 0.300000 0.000000 0.600000
0.530759 -0.153799 0.201060 1.000000 0.000000 0.000000
0.164105 -0.090142 -0.240154 1.000000 0.000000 0.000000
-0.223865 -0.090142 -0.187256 1.000000 0.000000 0.000000
-0.510325 -0.363322 0.252338 1.000000 0.000000 0.000000
-0.476343 0.295921 0.436774 0.300000 0.000000 0.600000
0.588709 -0.604358 -0.014210 1.000000 0.000000 0.000000
-0.231265 -0.090142 0.183045 1.000000 0.000000 0.000000
0.000667 0.017130 -0.392938 1.000000 0.000000 0.000000
-0.512341 -0.166956 0.124133 1.000000 0.000000 0.000000
0.471062 0.600291 -0.210229 1.000000 0.000000 0.000000
0.143041 0.424748 0.385247 1.000000 0.000000 0.000000
-0.026720 -0.283930 0.403690 0.600000 0.300000 0.000000
-0.246393 0.653918 -0.442610 1.000000 0.000000 0.000000
-0.512341 -0.313190 -0.194835 1.000000 0.000000 0.000000
-0.570291 0.342818 0.009881 1.000000 0.000000 0.000000
-0.381229 -0.633216 0.345059 1.000000 0.000000 0.000000
-0.512341 0.292086 0.255037 1.000000 0.000000 0.000000
0.588709 -0.231993 0.083215 1.000000 0.000000 0.000000
0.026673 -0.090142 0.189442 1.000000 0.000000 0.000000
0.588709 0.308396 0.206729 1.000000 0.000000 0.000000
-0.465889 0.473596 0.384118 1.000000 0.000000 0.000000
0.180175 0.641684 -0.025431 1.000000 0.000000 0.000000
-0.203086 0.640028 0.202355 1.000000 0.000000 0.000000
0.442425 0.356901 -0.049098 1.000000 0.000000 0.000000
-0.012484 -0.407781 0.270933 0.500000 0.000000 0.500000
0.027827 -0.407781 0.132712 0.500000 0.000000 0.500000
-0.059585 -0.407781 0.014858 0.500000 0.000000 0.500000
-0.512341 -0.429783 0.378047 1.000000 0.000000 0.000000
0.087825 -0.633216 0.098989 1.000000 0.000000 0.000000
0.588709 -0.168199 0.037647 1.000000 0.000000 0.000000
-0.512341 0.255389 -0.079766 1.000000 0.000000 0.000000
-0.394247 0.214306 -0.442610 1.000000 0.000000 0.000000
0.285072 0.574448 0.434271 1.000000 0.000000 0.000000
0.376088 -0.090142 0.302490 1.000000 0.000000 0.000000
0.236902 -0.682887 -0.368777 1.000000 0.000000 0.000000
0.061174 -0.172961 -0.442610 1.000000 0.000000 0.000000
-0.405240 -0.285484 -0.442610 1.000000 0.000000 0.000000
-0.203593 -0.407781 0.284037 0.500000 0.000000 0.500000
0.530759 0.120673 -0.118486 1.000000 0.000000 0.000000
-0.399259 0.600291 -0.129577 1.000000 0.000000 0.000000
0.329904 0.226026 -0.442610 1.000000 0.000000 0.000000
0.588709 0.306164 0.062018 1.000000 0.000000 0.000000
-0.347237 -0.200178 -0.392938 1.000000 0.000000 0.000000
0.351208 0.007968 -0.442610 1.000000 0.000000 0.000000
-0.304314 -0.090142 -0.069712 1.000000 0.000000 0.000000
-0.511489 -0.123826 -0.136337 1.000000 0.000000 0.000000
-0.119581 -0.682887 0.319345 1.000000 0.000000 0.000000
-0.258637 -0.682887 -0.230983 1.000000 0.000000 0.000000
-0.465060 0.640028 -0.027798 1.000000 0.000000 0.000000
0.080771 -0.075003 0.385247 1.000000 0.000000 0.000000
-0.100923 -0.539480 -0.392938 1.000000 0.000000 0.000000
0.269369 0.385846 0.385247 1.000000 0.000000 0.000000
0.530759 0.195776 -0.300991 1.000000 0.000000 0.000000
-0.349175 0.600291 -0.248635 1.000000 0.000000 0.000000
-0.314737 0.460430 -0.442610 1.000000 0.000000 0.000000
-0.570291 0.411707 0.172700 1.000000 0.000000 0.000000
-0.195266 0.377233 -0.392938 1.000000 0.000000 0.000000
0.582402 -0.164164 0.399855 0.600000 0.300000 0.000000
0.530759 0.055993 0.100856 1.000000 0.000000 0.000000
0.588709 -0.327762 0.244670 1.000000 0.000000 0.000000
-0.414137 -0.429507 -0.392938 1.000000 0.000000 0.000000
0.484799 0.641684 0.423528 1.000000 0.000000 0.000000
0.157148 -0.033653 -0.442610 1.000000 0.000000 0.000000
-0.055373 -0.682887 -0.185427 1.000000 0.000000 0.000000
-0.360757 -0.403224 0.335687 0.500000 0.000000 0.500000
-0.138642 -0.200210 -0.442610 1.000000 0.000000 0.000000
0.128332 -0.258808 -0.392938 1.000000 0.000000 0.000000
0.344049 -0.166554 -0.442610 1.000000 0.000000 0.000000
0.279979 -0.090142 0.363896 1.000000 0.000000 0.000000
-0.243278 -0.407781 0.193765 0.500000 0.000000 0.500000
-0.324011 -0.090142 0.289960 1.000000 0.000000 0.000000
-0.417430 0.169486 0.426597 0.300000 0.000000 0.600000
-0.551681 -0.494196 0.435026 0.600000 0.300000 0.000000
0.530759 -0.536443 -0.075836 1.000000 0.000000 0.000000
-0.285818 -0.682887 -0.319667 1.000000 0.000000 0.000000
0.398398 0.200251 0.391192 0.300000 0.000000 0.600000
0.586352 0.641684 0.227278 1.000000 0.000000 0.000000
0.270457 -0.337346 -0.392938 1.000000 0.000000 0.000000
-0.011741 0.356901 0.334423 1.000000 0.000000 0.000000
-0.179598 0.388059 0.400869 1.000000 0.000000 0.000000
-0.485268 0.567011 0.434897 1.000000 0.000000 0.000000
0.444586 -0.038814 -0.010083 1.000000 0.000000 0.000000
0.530759 0.307117 -0.033008 1.000000 0.000000 0.000000
0.530759 -0.002433 -0.378858 1.000000 0.000000 0.000000
-0.294430 -0.150813 0.476879 0.800000 0.200000 0.500000
-0.268074 -0.341977 -0.442610 1.000000 0.000000 0.000000
0.341913 -0.676093 -0.442610 1.000000 0.000000 0.000000
-0.241353 0.600291 0.025374 1.000000 0.000000 0.000000
-0.512341 0.041927 -0.006791 1.000000 0.000000 0.000000
0.385510 -0.633216 0.251606 1.000000 0.000000 0.000000
0.065638 -0.532718 0.407203 0.300000 0.000000 0.600000
0.258812 0.724470 -0.393004 1.000000 0.000000 0.000000
0.440195 -0.038814 0.153442 1.000000 0.000000 0.000000
0.588709 0.383790 -0.069332 1.000000 0.000000 0.000000
0.295658 -0.038956 -0.158655 1.000000 0.000000 0.000000
0.469815 -0.633216 0.097539 1.000000 0.000000 0.000000
-0.164936 -0.611951 0.383490 0.600000 0.300000 0.000000
-0.463127 -0.363322 -0.107420 0.500000 0.000000 0.500000
-0.351573 -0.407781 -0.169235 0.500000 0.000000 0.500000
-0.175962 0.640028 -0.056256 1.000000 0.000000 0.000000
0.042043 -0.052669 -0.442610 1.000000 0.000000 0.000000
-0.244466 -0.521682 -0.442610 1.000000 0.000000 0.000000
0.089993 0.356901 0.050615 1.000000 0.000000 0.000000
-0.132545 -0.407781 0.143540 0.500000 0.000000 0.500000
0.545791 0.056935 0.434682 0.300000 0.000000 0.600000
-0.285475 0.292730 0.383490 0.300000 0.000000 0.600000
-0.506132 -0.109997 0.343519 1.000000 0.000000 0.000000
0.056219 -0.682887 0.007188 1.000000 0.000000 0.000000
0.560076 -0.481016 0.385247 1.000000 0.000000 0.000000
-0.336328 -0.645978 -0.442610 1.000000 0.000000 0.000000
-0.008296 -0.025017 0.209656 0.500000 0.500000 0.000000
0.145965 -0.682887 -0.251707 1.000000 0.000000 0.000000
-0.012221 0.600291 0.161878 1.000000 0.000000 0.000000
0.340215 0.600291 -0.368500 1.000000 0.000000 0.000000
-0.507047 0.487791 -0.442610 1.000000 0.000000 0.000000
-0.223823 -0.501276 0.403690 0.600000 0.300000 0.000000
-0.558430 -0.261918 0.433634 0.600000 0.300000 0.000000
-0.508857 -0.019708 0.123132 1.000000 0.000000 0.000000
-0.359950 0.640028 0.345018 1.000000 0.000000 0.000000
-0.455882 0.368085 -0.442610 1.000000 0.000000 0.000000
0.146731 0.641684 -0.168975 1.000000 0.000000 0.000000
-0.007986 -0.018884 0.074220 0.500000 0.500000 0.000000
0.588709 0.037847 -0.080803 1.000000 0.000000 0.000000
-0.512341 0.085425 0.325899 1.000000 0.000000 0.000000
0.158058 -0.090142 -0.111688 1.000000 0.000000 0.000000
-0.570291 0.240294 -0.101043 1.000000 0.000000 0.000000
-0.134714 -0.323630 -0.442610 1.000000 0.000000 0.000000
0.127260 -0.643210 -0.442610 1.000000 0.000000 0.000000
0.588709 -0.262851 -0.239491 1.000000 0.000000 0.000000
0.104943 -0.407781 -0.321123 0.500000 0.000000 0.500000
-0.121687 -0.682887 -0.080691 1.000000 0.000000 0.000000
0.505986 0.511018 0.385247 1.000000 0.000000 0.000000
0.588709 -0.568238 0.119947 1.000000 0.000000 0.000000
0.536783 0.007572 0.385247 1.000000 0.000000 0.000000
0.271392 -0.633216 -0.024209 1.000000 0.000000 0.000000
0.588709 -0.196513 -0.255157 1.000000 0.000000 0.000000
-0.143989 -0.156744 -0.392938 1.000000 0.000000 0.000000
0.586456 -0.039891 0.385247 1.000000 0.000000 0.000000
-0.076476 0.600291 -0.259425 1.000000 0.000000 0.000000
-0.570291 0.042491 0.062313 1.000000 0.000000 0.000000
0.492225 0.600291 -0.378645 1.000000 0.000000 0.000000
-0.206014 -0.090142 -0.038249 1.000000 0.000000 0.000000
-0.380225 -0.296021 0.403690 0.600000 0.300000 0.000000
-0.512341 0.158707 0.353248 1.000000 0.000000 0.000000
-0.207337 0.071651 -0.442610 1.000000 0.000000 0.000000
-0.497968 0.398074 -0.392938 1.000000 0.000000 0.000000
0.423645 0.641684 0.225714 1.000000 0.000000 0.000000
0.267302 -0.191490 -0.392938 1.000000 0.000000 0.000000
0.546202 -0.310885 -0.442610 1.000000 0.000000 0.000000
-0.092529 0.356901 0.182584 1.000000 0.000000 0.000000
0.359640 -0.682887 -0.260740 1.000000 0.000000 0.000000
-0.507968 -0.605411 -0.172243 1.000000 0.000000 0.000000
-0.469142 -0.320603 -0.442610 1.000000 0.000000 0.000000
-0.425607 -0.633216 0.274405 1.000000 0.000000 0.000000
0.226289 0.356901 -0.266090 1.000000 0.000000 0.000000
-0.012605 -0.025017 -0.126733 0.500000 0.500000 0.000000
0.396026 0.640028 0.411058 1.000000 0.000000 0.000000
-0.389666 -0.682887 0.230773 1.000000 0.000000 0.000000
0.460438 0.048212 0.434282 0.300000 0.000000 0.600000
0.588709 -0.553124 -0.433248 1.000000 0.000000 0.000000
-0.570291 -0.301729 0.129172 1.000000 0.000000 0.000000
0.047923 0.600291 -0.337874 1.000000 0.000000 0.000000
0.588709 0.099789 0.175975 1.000000 0.000000 0.000000
0.021626 -0.317259 -0.442610 1.000000 0.000000 0.000000
0.588709 0.628577 -0.286762 1.000000 0.000000 0.000000
-0.478861 -0.064282 0.385247 1.000000 0.000000 0.000000
0.530759 -0.337077 0.381217 1.000000 0.000000 0.000000
-0.267949 0.641684 -0.017777 1.000000 0.000000 0.000000
0.370964 0.356901 -0.038608 1.000000 0.000000 0.000000
-0.188511 -0.682887 0.224925 1.000000 0.000000 0.000000
0.530759 0.206566 -0.192889 1.000000 0.000000 0.000000
0.588709 -0.089387 -0.288454 1.000000 0.000000 0.000000
0.457026 0.184622 -0.392938 1.000000 0.000000 0.000000
0.588709 0.265154 -0.367733 1.000000 0.000000 0.000000
-0.056362 0.099943 -0.442610 1.000000 0.000000 0.000000
-0.094754 -0.484691 0.403690 0.600000 0.300000 0.000000
-0.242703 0.600291 -0.318165 1.000000 0.000000 0.000000
0.588709 0.450189 0.310717 1.000000 0.000000 0.000000
-0.471500 -0.682887 -0.391542 1.000000 0.000000 0.000000
-0.570291 -0.367153 0.037262 1.000000 0.000000 0.000000
0.296775 -0.038814 -0.226413 1.000000 0.000000 0.000000
0.588709 0.414788 0.062615 1.000000 0.000000 0.000000
0.310568 0.600291 -0.260917 1.000000 0.000000 0.000000
0.370017 -0.528077 -0.392938 1.000000 0.000000 0.000000
0.122570 -0.682887 -0.314013 1.000000 0.000000 0.000000
-0.334353 0.619691 0.459521 1.000000 0.000000 0.000000
-0.512341 -0.258654 -0.115556 1.000000 0.000000 0.000000
-0.352986 -0.090142 -0.191872 1.000000 0.000000 0.000000
-0.512341 -0.315550 -0.037603 1.000000 0.000000 0.000000
-0.281995 -0.199702 0.435326 0.600000 0.300000 0.000000
-0.529948 -0.027040 -0.442610 1.000000 0.000000 0.000000
0.522735 -0.614957 -0.242575 1.000000 0.000000 0.000000
-0.054604 -0.407781 -0.168451 0.500000 0.000000 0.500000
-0.560234 0.641684 0.033269 1.000000 0.000000 0.000000
-0.570291 0.298327 0.184729 1.000000 0.000000 0.000000
0.195047 -0.269471 -0.442610 1.000000 0.000000 0.000000
0.431774 -0.633216 -0.313033 1.000000 0.000000 0.000000
0.336046 -0.633503 0.434681 0.600000 0.300000 0.000000
-0.512341 -0.415698 0.024701 1.000000 0.000000 0.000000
0.322645 -0.407781 -0.013677 0.500000 0.000000 0.500000
-0.257103 0.600291 0.323749 1.000000 0.000000 0.000000
-0.161442 -0.407781 -0.281335 0.500000 0.000000 0.500000
0.083892 0.569270 -0.442610 1.000000 0.000000 0.000000
-0.511124 -0.359479 -0.392938 0.500000 0.000000 0.500000
0.320450 0.356901 0.089154 1.000000 0.000000 0.000000
0.494919 0.600291 0.042326 1.000000 0.000000 0.000000
0.588709 -0.334232 -0.078648 1.000000 0.000000 0.000000
-0.512341 -0.157887 -0.378365 1.000000 0.000000 0.000000
-0.448607 -0.381846 0.383490 0.600000 0.300000 0.000000
0.323495 -0.001395 0.434960 0.300000 0.000000 0.600000
-0.512341 0.203493 -0.316584 1.000000 0.000000 0.000000
-0.570291 -0.173806 0.062137 1.000000 0.000000 0.000000
0.408651 -0.359939 0.407151 0.300000 0.000000 0.600000
0.277643 0.600291 -0.199237 1.000000 0.000000 0.000000
-0.506894 -0.225345 0.145646 1.000000 0.000000 0.000000
0.073291 -0.407781 -0.169007 0.500000 0.000000 0.500000
-0.446927 -0.457009 0.383490 0.600000 0.300000 0.000000
0.025601 0.095259 -0.392938 1.000000 0.000000 0.000000
0.588709 0.220260 -0.266547 1.000000 0.000000 0.000000
-0.045451 -0.475952 -0.392938 1.000000 0.000000 0.000000
0.164701 -0.407781 -0.102843 0.500000 0.000000 0.500000
-0.217709 0.641684 0.378307 1.000000 0.000000 0.000000
-0.521558 0.708801 -0.392938 1.000000 0.000000 0.000000
-0.430402 -0.038814 0.336416 1.000000 0.000000 0.000000
0.389239 -0.633216 0.325129 1.000000 0.000000 0.000000
0.358966 0.641684 0.018720 1.000000 0.000000 0.000000
0.529765 -0.013333 0.029931 1.000000 0.000000 0.000000
0.530759 -0.585973 0.173282 1.000000 0.000000 0.000000
-0.298801 -0.407781 0.058432 0.500000 0.000000 0.500000
-0.355157 0.600291 -0.423016 1.000000 0.000000 0.000000
0.345711 0.419463 -0.442610 1.000000 0.000000 0.000000
-0.056696 0.600291 0.278184 1.000000 0.000000 0.000000
0.060126 0.356901 0.233939 1.000000 0.000000 0.000000
0.530759 -0.403155 0.279503 1.000000 0.000000 0.000000
-0.159415 -0.674873 -0.442610 1.000000 0.000000 0.000000
0.394030 -0.038814 -0.332850 1.000000 0.000000 0.000000
-0.443618 -0.090142 -0.261375 1.000000 0.000000 0.000000
