ply
format ascii 1.0
element vertex 1297
property float x
property float y
property float z
property uchar red
property uchar green
property uchar blue
end_header
-0.482688 0.344604 0.385247 255 0 0
-0.570290 0.395081 0.195944 255 0 0
0.393406 -0.680306 0.385247 255 0 0
-0.324166 0.581636 0.385247 255 0 0
-0.027966 0.641684 -0.141540 255 0 0
-0.178486 0.600291 -0.336233 255 0 0
-0.163328 -0.682886 0.098575 255 0 0
0.436055 0.500177 -0.392938 255 0 0
-0.039740 -0.090141 0.281875 255 0 0
0.105325 0.295173 0.433925 76 0 153
-0.276220 0.641684 0.299766 255 0 0
-0.191667 0.600291 0.317206 255 0 0
0.139469 -0.682886 -0.039491 255 0 0
0.588709 -0.102732 0.139720 255 0 0
0.051695 0.641684 -0.366740 255 0 0
0.139038 -0.090141 0.274598 255 0 0
-0.301871 -0.407780 -0.137845 127 0 127
0.233856 0.051994 0.405447 76 0 153
0.530759 0.268441 0.075365 255 0 0
-0.432088 -0.407780 -0.030832 127 0 127
-0.570290 -0.512520 -0.209710 255 0 0
-0.124932 -0.682886 0.119977 255 0 0
-0.324624 -0.606996 -0.442610 255 0 0
0.588709 0.565493 -0.412198 255 0 0
-0.318992 0.600291 0.316880 255 0 0
0.524606 -0.612155 0.222793 255 0 0
0.280356 -0.407780 0.289234 127 0 127
0.530759 0.181987 0.031156 255 0 0
0.149442 0.600291 0.264481 255 0 0
0.530759 0.011931 0.048287 255 0 0
-0.546436 -0.083666 0.385247 153 76 0
0.445793 0.250450 -0.392938 255 0 0
-0.056408 0.365478 0.398872 76 0 153
0.150952 0.229667 -0.442610 255 0 0
0.483445 -0.682886 0.250151 255 0 0
0.588709 -0.463233 -0.412567 255 0 0
0.151652 0.641684 -0.119598 255 0 0
-0.262599 0.354225 -0.442610 255 0 0
-0.106299 -0.090141 0.306895 255 0 0
-0.243244 -0.409982 0.405447 153 76 0
-0.285088 -0.377900 -0.442610 255 0 0
-0.512340 -0.457979 -0.003677 255 0 0
-0.561484 0.600291 -0.007409 255 0 0
-0.520382 0.220103 -0.442610 255 0 0
-0.570290 -0.610627 0.243713 255 0 0
-0.255837 -0.633215 -0.268971 255 0 0
-0.500245 -0.363321 0.073607 255 0 0
-0.480645 -0.651709 -0.442610 255 0 0
0.072573 0.356901 -0.253765 255 0 0
0.217224 0.701914 -0.392938 255 0 0
0.588709 0.155221 -0.051139 255 0 0
0.130536 -0.018884 0.152442 127 127 0
0.156355 0.356901 -0.052044 255 0 0
-0.557988 -0.013845 0.433925 76 0 153
0.351679 0.600291 0.406116 255 0 0
-0.570290 -0.580912 -0.265123 255 0 0
-0.338650 0.333066 -0.442610 255 0 0
-0.383975 0.641684 -0.326333 255 0 0
-0.113222 0.365478 0.405065 255 0 0
-0.029753 0.287809 0.507127 0 0 255
-0.409169 -0.682886 -0.124497 255 0 0
0.545972 0.406578 0.385247 255 0 0
0.566231 -0.604300 0.385247 255 0 0
-0.570290 0.434259 0.053902 255 0 0
-0.507252 -0.516628 0.034039 255 0 0
0.381735 -0.040369 0.433925 76 0 153
0.029534 -0.633215 0.077644 255 0 0
-0.095642 -0.682886 0.051213 255 0 0
-0.570290 0.359981 -0.204213 255 0 0
-0.562564 -0.318655 0.427209 153 76 0
-0.269463 -0.569946 0.411729 153 76 0
0.461220 -0.038814 0.134943 255 0 0
0.418434 0.641684 0.050368 255 0 0
0.113620 0.523694 0.426143 153 0 76
0.068646 -0.038814 0.341514 255 0 0
-0.183153 -0.075007 0.385247 153 76 0
-0.290021 0.556687 0.433925 153 0 76
0.076669 -0.044946 -0.030627 255 0 0
-0.116223 -0.133893 -0.392938 255 0 0
0.105311 0.049354 0.405447 76 0 153
-0.086875 -0.407780 -0.293211 127 0 127
-0.023585 -0.140861 0.433925 153 76 0
-0.570290 0.442572 0.287831 255 0 0
0.588709 -0.296383 -0.407238 255 0 0
-0.570290 0.489275 -0.143173 255 0 0
0.358030 -0.090141 0.037776 255 0 0
-0.218276 0.636297 0.452352 255 0 0
-0.069858 0.600291 0.000542 255 0 0
0.068367 -0.407780 -0.179111 127 0 127
0.530759 -0.239133 0.154547 255 0 0
0.078117 -0.090141 -0.065579 255 0 0
-0.418782 0.583620 -0.442610 255 0 0
-0.341713 -0.038814 -0.174295 255 0 0
0.548163 -0.512311 0.433925 153 76 0
-0.341160 0.600291 -0.347557 255 0 0
-0.040940 -0.090141 -0.154819 255 0 0
0.251269 0.504314 -0.392938 255 0 0
0.424087 0.600291 0.030372 255 0 0
-0.570290 -0.143223 -0.244294 255 0 0
-0.512340 0.065678 0.336600 255 0 0
0.298151 0.640028 -0.210156 255 0 0
0.306943 -0.407780 -0.315627 127 0 127
-0.570290 -0.646703 0.001927 255 0 0
-0.475048 0.487062 -0.392938 255 0 0
-0.041884 -0.256015 -0.392938 255 0 0
0.528382 0.337180 0.285367 255 0 0
-0.570290 0.281612 -0.122413 255 0 0
0.423717 0.356901 -0.155709 255 0 0
-0.570290 -0.210026 0.114803 255 0 0
0.530759 0.123909 0.125182 255 0 0
-0.570290 0.442328 0.243106 255 0 0
0.302161 -0.633215 -0.359436 255 0 0
-0.167600 -0.018884 0.083754 127 127 0
-0.330227 0.647037 -0.392938 255 0 0
-0.570290 -0.449746 0.144148 255 0 0
-0.435053 -0.108101 0.433925 153 76 0
-0.369671 -0.633215 -0.220942 255 0 0
-0.570290 0.081304 0.065375 255 0 0
-0.396105 0.600291 -0.153568 255 0 0
-0.049763 -0.018884 0.026182 127 127 0
-0.512340 0.175451 -0.292126 255 0 0
-0.111612 0.309305 0.433925 76 0 153
-0.511797 -0.010599 0.322839 255 0 0
0.494270 0.477307 0.385247 255 0 0
-0.570290 0.396385 -0.167142 255 0 0
-0.423090 -0.633215 -0.110229 255 0 0
-0.345957 -0.027148 0.433925 76 0 153
-0.254547 -0.111847 -0.392938 255 0 0
-0.512340 -0.565854 0.287129 255 0 0
-0.103458 -0.633215 -0.311099 255 0 0
-0.240933 -0.633215 -0.045176 255 0 0
-0.512340 0.262353 0.015199 255 0 0
-0.053621 -0.407780 0.299079 127 0 127
0.239272 0.640028 -0.117200 255 0 0
-0.255971 -0.038814 0.281541 255 0 0
-0.348760 0.604688 0.451007 255 0 0
0.481500 -0.090305 0.323951 255 0 0
-0.300131 0.641684 0.031053 255 0 0
0.065887 -0.033113 -0.392938 255 0 0
-0.012669 -0.633215 0.265768 255 0 0
0.500436 -0.631165 -0.227316 255 0 0
0.388430 0.367942 -0.442610 255 0 0
-0.267406 -0.407780 -0.297398 127 0 127
-0.210212 -0.442501 -0.392938 255 0 0
-0.292021 0.641684 -0.185222 255 0 0
0.483077 -0.125650 0.385247 153 76 0
0.493838 -0.154069 -0.442610 255 0 0
0.513427 -0.358722 0.138985 255 0 0
0.345970 -0.363590 0.335687 127 0 127
0.504458 -0.363321 -0.236895 127 0 127
0.121451 -0.090141 0.088187 255 0 0
0.130242 0.640028 0.235403 255 0 0
-0.080483 -0.025017 -0.071198 127 127 0
-0.153121 -0.405736 0.405447 76 0 153
-0.388257 -0.682886 0.156132 255 0 0
-0.318698 0.402379 -0.392938 255 0 0
-0.456867 0.641684 -0.336838 255 0 0
0.530759 0.003616 -0.186387 255 0 0
-0.220796 -0.038814 -0.372587 255 0 0
0.431921 -0.313075 -0.392938 255 0 0
-0.279639 0.034980 -0.442610 255 0 0
-0.500809 -0.682886 -0.383667 255 0 0
-0.110924 -0.682886 0.271592 255 0 0
0.504435 -0.629754 -0.064126 255 0 0
-0.512340 0.002596 -0.100088 255 0 0
-0.342503 -0.197805 0.433925 153 76 0
-0.348775 0.493965 -0.442610 255 0 0
-0.067737 -0.064168 -0.392938 255 0 0
-0.536898 -0.682886 0.362178 255 0 0
0.436315 0.253478 -0.442610 255 0 0
0.309907 -0.552549 0.405447 76 0 153
0.195494 0.641684 -0.364068 255 0 0
0.435209 -0.619256 0.385247 153 76 0
-0.510300 0.600291 0.358149 255 0 0
0.296665 -0.682886 0.085796 255 0 0
-0.399597 -0.385281 -0.392938 255 0 0
-0.202784 0.317146 0.385247 76 0 153
0.088869 -0.511566 -0.392938 255 0 0
0.084590 -0.176759 -0.442610 255 0 0
0.467960 -0.090141 0.253398 255 0 0
0.143903 0.184758 -0.442610 255 0 0
-0.229438 -0.090141 0.112579 255 0 0
0.379611 0.600291 -0.192166 255 0 0
-0.027563 0.641684 -0.033730 255 0 0
-0.377349 0.365478 0.420564 76 0 153
-0.570290 0.636407 -0.375580 255 0 0
0.530759 0.127076 -0.224412 255 0 0
0.588709 -0.648555 0.174405 255 0 0
-0.382286 0.394713 -0.442610 255 0 0
0.176831 0.395538 -0.392938 255 0 0
-0.570290 -0.045478 0.219481 255 0 0
-0.570290 -0.131410 -0.174846 255 0 0
-0.512340 -0.581973 -0.084078 255 0 0
-0.570290 0.289611 0.275185 255 0 0
0.286534 -0.633215 -0.039500 255 0 0
0.588709 -0.368479 0.038961 255 0 0
0.052894 -0.025017 0.039972 127 127 0
-0.333686 0.051343 -0.392938 255 0 0
-0.181669 0.600291 -0.420390 255 0 0
-0.180329 -0.547034 -0.442610 255 0 0
-0.341638 -0.038814 0.025602 255 0 0
-0.570290 0.257318 0.155116 255 0 0
0.326699 -0.038814 -0.318887 255 0 0
-0.206990 -0.407780 -0.143981 127 0 127
0.032801 -0.038814 0.351301 255 0 0
0.410027 -0.407780 -0.059984 127 0 127
-0.152203 -0.090141 -0.253820 255 0 0
0.291302 -0.136944 0.385247 153 76 0
-0.570290 0.583500 0.162785 255 0 0
-0.030925 0.600291 -0.364817 255 0 0
-0.570290 -0.397904 -0.298500 255 0 0
-0.512340 -0.456961 -0.322644 255 0 0
-0.570290 -0.435054 -0.085307 255 0 0
-0.570290 -0.015511 -0.086375 255 0 0
0.269082 -0.463173 -0.442610 255 0 0
-0.306573 -0.090141 -0.266628 255 0 0
-0.501781 0.549734 -0.392938 255 0 0
0.109320 -0.015037 0.385247 76 0 153
-0.373896 0.209821 0.425646 76 0 153
-0.352107 -0.333867 -0.442610 255 0 0
-0.207594 -0.633215 0.368112 255 0 0
0.113511 -0.358722 0.363977 127 0 127
0.222480 0.600291 0.347346 255 0 0
0.263647 0.579816 0.385247 255 0 0
-0.536535 -0.598207 -0.442610 255 0 0
0.154234 -0.044946 -0.236892 255 0 0
0.095898 -0.326027 -0.392938 255 0 0
-0.210908 0.165997 -0.392938 255 0 0
-0.253878 0.356901 0.156434 255 0 0
0.411260 -0.090141 -0.388241 255 0 0
-0.170532 -0.407780 0.025714 127 0 127
-0.391618 -0.010327 -0.392938 255 0 0
-0.155938 -0.682886 -0.153220 255 0 0
0.054916 -0.090141 -0.325628 255 0 0
0.534248 -0.051206 0.408723 255 0 0
-0.060722 0.241405 -0.442610 255 0 0
0.403287 0.135711 0.405447 76 0 153
0.490901 0.640028 0.014275 255 0 0
0.108535 -0.044946 -0.082586 255 0 0
-0.101946 0.640028 -0.254865 255 0 0
-0.161208 -0.018884 -0.141051 127 127 0
0.303001 -0.281853 -0.442610 255 0 0
-0.570290 -0.295192 0.135626 255 0 0
0.588709 -0.390077 0.075309 255 0 0
0.346102 0.247519 -0.442610 255 0 0
-0.512340 -0.336380 -0.265492 255 0 0
-0.372935 0.640028 0.368725 255 0 0
0.588709 -0.583684 0.256920 255 0 0
0.588709 -0.421261 -0.423212 255 0 0
0.034722 -0.358596 0.405447 153 76 0
0.214955 0.203560 0.385247 76 0 153
0.352873 -0.682886 -0.164263 255 0 0
-0.214869 0.203119 -0.442610 255 0 0
0.588709 0.559477 -0.305271 255 0 0
0.485598 0.513530 0.433925 255 0 0
0.500194 -0.600919 0.385247 153 76 0
-0.124342 -0.633215 -0.384054 255 0 0
0.291667 -0.592819 -0.392938 255 0 0
-0.477279 0.640028 0.271135 255 0 0
0.219093 0.600291 0.268789 255 0 0
0.225725 0.102751 -0.392938 255 0 0
-0.508123 0.134587 -0.442610 255 0 0
0.530759 -0.155236 -0.343482 255 0 0
0.368840 -0.168631 -0.442610 255 0 0
0.462192 -0.426038 0.385247 153 76 0
-0.376004 0.640028 0.205095 255 0 0
-0.387174 0.419334 0.433925 255 0 0
-0.026241 -0.025017 0.274674 127 127 0
-0.441833 0.266784 -0.392938 255 0 0
-0.486496 0.016492 -0.392938 255 0 0
-0.389265 0.600291 0.245610 255 0 0
0.458912 -0.038814 0.247119 255 0 0
0.286288 -0.407780 -0.067258 127 0 127
0.349333 0.600291 -0.292108 255 0 0
0.419821 0.600291 -0.125144 255 0 0
-0.270397 0.640579 0.446537 255 0 0
-0.468726 -0.532689 -0.392938 255 0 0
-0.213284 -0.090141 -0.090379 255 0 0
-0.149906 0.468654 0.433925 153 0 76
-0.428746 0.031941 0.425646 76 0 153
0.430874 -0.633215 -0.224903 255 0 0
0.225737 -0.633215 -0.194681 255 0 0
-0.535088 0.035142 0.385247 76 0 153
-0.479291 -0.038757 -0.339573 255 0 0
0.400961 0.489521 -0.442610 255 0 0
0.461632 0.641684 -0.237286 255 0 0
-0.570290 -0.149526 -0.205461 255 0 0
-0.570290 0.103171 0.168808 255 0 0
0.530759 -0.549966 -0.259458 255 0 0
-0.226585 0.600291 0.372824 255 0 0
-0.195842 -0.608335 -0.442610 255 0 0
0.234806 -0.090141 -0.291361 255 0 0
-0.269247 -0.682886 0.218509 255 0 0
0.467020 0.641684 0.422276 255 0 0
0.384622 0.600291 -0.054030 255 0 0
-0.162489 0.640028 0.423968 255 0 0
0.312374 0.317941 0.385247 76 0 153
0.065126 -0.627705 0.433925 153 76 0
-0.113780 -0.505868 -0.392938 255 0 0
0.073215 -0.682886 0.150080 255 0 0
0.530759 -0.342644 0.199550 255 0 0
-0.329480 -0.682886 0.281519 255 0 0
-0.173457 -0.018884 0.034301 127 127 0
-0.543866 0.600291 -0.037617 255 0 0
-0.040511 -0.044946 -0.012093 255 0 0
0.357464 0.641684 0.041578 255 0 0
-0.312024 0.641684 0.329630 255 0 0
-0.375430 0.641684 -0.265645 255 0 0
-0.570290 -0.396588 -0.382289 255 0 0
-0.484190 -0.139725 -0.442610 255 0 0
0.481017 -0.633215 0.286871 255 0 0
0.413548 -0.682886 0.170485 255 0 0
0.523093 -0.526335 -0.118748 255 0 0
0.014212 0.600291 0.267710 255 0 0
-0.033095 0.065577 -0.392938 255 0 0
0.361712 0.600291 0.442765 255 0 0
0.371553 -0.536834 -0.442610 255 0 0
0.448148 0.600291 0.104068 255 0 0
0.258214 0.220783 -0.392938 255 0 0
-0.163757 0.110999 0.405447 153 0 76
0.566779 -0.682886 -0.204680 255 0 0
-0.221033 0.457132 0.433925 153 0 76
-0.570290 -0.465785 -0.102752 255 0 0
0.553170 -0.480117 0.385247 255 0 0
0.235220 0.640028 -0.318611 255 0 0
-0.410024 -0.407780 -0.309396 127 0 127
-0.111153 0.134527 0.405447 153 0 76
-0.395139 -0.633215 0.041511 255 0 0
0.091779 -0.492079 -0.442610 255 0 0
0.543787 0.128628 0.385247 255 0 0
0.588709 0.254843 -0.116100 255 0 0
0.466357 -0.090141 0.187092 255 0 0
0.587912 0.693111 -0.392938 255 0 0
-0.478397 0.600291 -0.280126 255 0 0
0.588709 0.362358 -0.278456 255 0 0
0.305732 0.357959 0.433925 76 0 153
-0.456138 0.314880 0.433925 76 0 153
0.251932 -0.633215 -0.321541 255 0 0
-0.456818 0.164042 -0.442610 255 0 0
0.440961 0.641684 -0.353000 255 0 0
-0.095180 -0.157870 0.385247 153 76 0
-0.062389 -0.090141 -0.238328 255 0 0
-0.448381 0.177785 0.433925 76 0 153
-0.570290 0.589002 0.321629 255 0 0
-0.570290 -0.083457 0.161130 255 0 0
-0.190214 0.640028 -0.001180 255 0 0
-0.153185 0.504224 -0.392938 255 0 0
-0.323138 -0.090141 -0.191455 255 0 0
-0.183556 -0.018884 -0.232344 127 127 0
-0.562564 -0.249170 0.402569 255 0 0
-0.111511 0.583211 0.385247 255 0 0
0.530759 0.281087 0.205768 255 0 0
-0.512340 -0.328565 0.070518 255 0 0
0.523093 -0.523586 0.324314 255 0 0
-0.459989 0.116201 -0.392938 255 0 0
-0.069045 0.641684 -0.265908 255 0 0
-0.019749 0.356901 0.234792 255 0 0
0.083146 0.600291 -0.163189 255 0 0
0.091806 -0.682886 0.188009 255 0 0
0.229474 -0.090141 -0.368067 255 0 0
-0.512340 0.267901 -0.385540 255 0 0
0.341192 -0.270350 -0.442610 255 0 0
0.112457 0.055568 -0.442610 255 0 0
0.378071 0.336601 -0.392938 255 0 0
-0.081066 -0.407780 0.221825 127 0 127
0.588709 0.192546 0.355667 255 0 0
-0.451564 0.356901 -0.243790 255 0 0
-0.447329 -0.633215 -0.042973 255 0 0
0.522660 -0.615068 -0.276010 255 0 0
0.010025 -0.018884 0.266236 127 127 0
0.136958 -0.044946 0.121084 255 0 0
-0.064204 0.356901 -0.003377 255 0 0
-0.512340 -0.208984 0.213187 255 0 0
0.136528 0.356901 -0.180350 255 0 0
-0.423185 -0.645517 0.398957 153 76 0
-0.570166 0.204869 -0.442610 255 0 0
-0.286884 -0.682886 -0.066440 255 0 0
0.504998 0.600291 -0.243159 255 0 0
-0.162849 0.185318 -0.392938 255 0 0
-0.570290 0.213635 0.344853 255 0 0
-0.160064 -0.633215 0.212452 255 0 0
-0.408814 -0.038814 0.063797 255 0 0
-0.440734 -0.038814 0.124578 255 0 0
-0.570290 0.049933 0.097037 255 0 0
0.308574 0.080195 -0.442610 255 0 0
0.265856 -0.044946 -0.103310 127 127 0
-0.570290 -0.114121 0.242879 255 0 0
0.452680 -0.451964 -0.392938 255 0 0
-0.014986 -0.682886 -0.402610 255 0 0
0.423308 -0.370799 -0.343378 127 0 127
0.414405 -0.090141 0.074550 255 0 0
-0.024989 -0.010217 -0.392938 255 0 0
0.588709 0.417570 -0.377698 255 0 0
0.530759 -0.464761 -0.277703 255 0 0
-0.252833 -0.375182 0.335687 127 0 127
-0.274719 -0.633215 -0.317212 255 0 0
-0.509763 -0.017865 0.219545 255 0 0
-0.426132 -0.407780 0.137972 127 0 127
-0.229338 -0.407780 0.091808 127 0 127
0.139652 0.160869 -0.392938 255 0 0
0.055891 0.402356 0.385247 255 0 0
-0.219565 -0.038814 -0.312594 255 0 0
-0.512340 0.251936 -0.200398 255 0 0
-0.570290 0.247337 -0.251954 255 0 0
-0.105706 -0.510182 -0.442610 255 0 0
0.530759 0.226238 0.165312 255 0 0
0.347278 0.641684 0.423701 255 0 0
0.022067 0.520341 -0.392938 255 0 0
0.588709 0.343467 -0.036228 255 0 0
0.304746 -0.018884 0.063435 127 127 0
-0.009712 -0.678443 0.385247 255 0 0
0.120206 -0.044946 -0.285796 255 0 0
-0.427695 -0.038814 -0.043898 255 0 0
0.411675 -0.407780 -0.253454 127 0 127
-0.406713 -0.682886 0.042956 255 0 0
0.309715 -0.044946 -0.017302 255 0 0
0.530759 0.312936 -0.353226 255 0 0
-0.211266 -0.042135 0.221693 127 127 0
0.247608 -0.633215 -0.386747 255 0 0
-0.053295 -0.562934 -0.442610 255 0 0
-0.462295 -0.174029 -0.442610 255 0 0
-0.192565 -0.633215 0.064427 255 0 0
-0.145191 -0.682886 -0.078998 255 0 0
0.198731 -0.682886 0.198912 255 0 0
0.102949 -0.159913 -0.392938 255 0 0
-0.505310 0.345003 0.240445 255 0 0
0.331525 0.504371 -0.392938 255 0 0
-0.084372 -0.018884 -0.129915 127 127 0
-0.221716 0.600291 0.336820 255 0 0
0.118698 0.356901 0.329968 255 0 0
0.588709 -0.654241 0.295534 255 0 0
0.540003 -0.547336 0.385247 255 0 0
-0.111424 0.600291 -0.397102 255 0 0
-0.512340 -0.450525 0.138547 255 0 0
-0.141734 -0.358722 0.372103 127 0 127
0.233445 -0.468337 0.405447 76 0 153
0.400297 0.641684 -0.155648 255 0 0
-0.327855 -0.605008 0.433925 153 76 0
-0.570290 -0.006037 -0.204659 255 0 0
0.031524 -0.407780 -0.247754 127 0 127
0.196812 -0.081035 0.427927 153 76 0
-0.570290 0.627156 0.190629 255 0 0
0.588709 -0.320219 0.211354 255 0 0
-0.093372 0.600291 0.204225 255 0 0
-0.570290 0.496472 -0.411087 255 0 0
0.380002 -0.412966 -0.442610 255 0 0
-0.512340 0.056975 -0.012223 255 0 0
-0.040550 0.628693 -0.442610 255 0 0
0.484725 0.045951 -0.392938 255 0 0
-0.013636 0.201386 -0.392938 255 0 0
-0.337269 -0.028997 -0.442610 255 0 0
-0.346996 -0.018868 0.385247 76 0 153
0.184162 -0.376515 0.335687 127 0 127
0.481199 -0.393981 -0.220677 127 0 127
-0.117188 0.600291 0.031624 255 0 0
0.068223 -0.051206 0.416909 76 0 153
0.530759 -0.455658 -0.082513 255 0 0
0.588709 0.581194 -0.158754 255 0 0
-0.335361 -0.682886 -0.407064 255 0 0
-0.187204 -0.090141 -0.151742 255 0 0
0.296927 -0.322601 0.405447 153 76 0
0.588709 0.477317 0.297415 255 0 0
0.060390 -0.682886 0.000854 255 0 0
-0.271931 -0.633215 0.044978 255 0 0
-0.209612 -0.018884 -0.140731 127 127 0
-0.309607 -0.547601 0.405447 153 76 0
-0.512340 0.004641 -0.195084 255 0 0
0.573244 0.600291 0.282315 255 0 0
0.447047 -0.633215 -0.192960 255 0 0
0.441824 -0.633215 0.119873 255 0 0
-0.570290 -0.645665 -0.140140 255 0 0
-0.330572 -0.407780 0.158031 127 0 127
0.373349 -0.633215 -0.001322 255 0 0
0.216255 -0.524064 0.405447 76 0 153
-0.042560 -0.081035 0.403138 255 0 0
0.066559 -0.516159 0.405447 76 0 153
-0.227360 0.600291 0.222305 255 0 0
0.097961 -0.407780 -0.142997 127 0 127
-0.185031 0.524507 -0.442610 255 0 0
-0.423492 0.350975 -0.442610 255 0 0
-0.233788 -0.588942 0.425646 153 76 0
0.197861 -0.358722 0.370746 127 0 127
-0.086094 -0.038814 -0.345501 255 0 0
0.588709 0.300521 0.201580 255 0 0
-0.182710 0.641684 0.199043 255 0 0
-0.429872 0.625245 -0.442610 255 0 0
-0.137330 -0.682886 -0.251428 255 0 0
0.392623 0.356901 -0.052191 255 0 0
0.530759 0.186163 0.238436 255 0 0
0.559002 -0.682886 0.224144 255 0 0
-0.219299 -0.326971 0.405447 153 76 0
0.507931 0.355579 0.030907 255 0 0
-0.291218 -0.090141 0.369672 255 0 0
-0.512340 -0.245466 0.305831 255 0 0
0.094852 -0.633215 0.344239 255 0 0
0.112406 0.640028 -0.211024 255 0 0
-0.447434 0.600291 0.157956 255 0 0
-0.228976 0.066222 -0.392938 255 0 0
-0.293060 0.600291 -0.076204 255 0 0
0.040359 0.031226 0.418359 76 0 153
0.037010 -0.259555 0.405447 76 0 153
-0.570290 -0.289808 -0.332739 255 0 0
0.499213 0.356887 -0.244791 255 0 0
0.530759 -0.260734 -0.001144 255 0 0
-0.472704 -0.573361 0.385247 153 76 0
-0.095231 -0.090141 -0.347184 255 0 0
-0.512340 -0.259640 0.085365 255 0 0
0.450736 0.640028 0.136813 255 0 0
0.576174 -0.358227 -0.442610 255 0 0
0.491111 0.600291 0.428067 255 0 0
-0.387029 -0.038814 0.253737 255 0 0
-0.508591 -0.583573 -0.392938 255 0 0
-0.570290 -0.529664 0.353714 255 0 0
0.154135 -0.090141 -0.331457 255 0 0
-0.512340 0.259884 -0.072668 255 0 0
-0.322492 -0.633215 0.337593 255 0 0
0.526974 -0.122544 -0.281318 255 0 0
-0.285823 0.306946 0.385247 76 0 153
0.239614 0.356901 0.355231 255 0 0
0.090768 -0.018884 0.146471 127 127 0
-0.570290 -0.263020 0.018376 255 0 0
0.089166 -0.143627 0.433925 153 76 0
-0.362161 -0.682886 0.092656 255 0 0
0.187029 -0.645517 0.394003 153 76 0
0.523093 -0.211874 0.100771 255 0 0
-0.329286 -0.090141 0.021362 255 0 0
0.136775 -0.018884 0.285634 127 127 0
-0.241032 -0.407780 -0.231924 127 0 127
0.217214 -0.407780 -0.212413 127 0 127
0.380297 -0.090141 -0.081683 255 0 0
-0.419982 -0.407780 -0.269358 127 0 127
-0.440649 0.303806 -0.442610 255 0 0
-0.439202 0.356901 0.272330 255 0 0
-0.172042 -0.222704 -0.442610 255 0 0
0.217658 -0.407780 -0.031104 127 0 127
-0.005432 -0.018884 -0.186623 127 127 0
0.442461 0.389188 0.386933 255 0 0
0.530759 0.135953 0.189536 255 0 0
0.529169 -0.516628 -0.051401 255 0 0
-0.042543 -0.633215 -0.270359 255 0 0
-0.127511 -0.574485 -0.442610 255 0 0
0.530759 0.131797 -0.282189 255 0 0
0.546196 0.397274 0.433925 255 0 0
0.326390 -0.682886 -0.300000 255 0 0
0.111231 -0.018884 0.214582 127 127 0
0.588709 0.524522 -0.058470 255 0 0
0.275763 -0.044946 0.123839 255 0 0
-0.047337 0.356901 -0.059000 255 0 0
-0.570290 0.054585 0.354812 255 0 0
0.077495 -0.682886 -0.062416 255 0 0
0.376232 0.356901 -0.244405 255 0 0
-0.512340 0.100231 0.171654 255 0 0
-0.411481 -0.090141 -0.115006 255 0 0
0.293365 0.585855 -0.442610 255 0 0
-0.114143 -0.407780 0.108900 127 0 127
-0.350294 -0.473647 -0.442610 255 0 0
0.533565 0.600291 -0.012173 255 0 0
-0.229982 -0.090141 0.171808 255 0 0
-0.512340 -0.564980 -0.304259 255 0 0
0.153205 0.514654 0.450482 76 153 0
-0.187614 0.600291 0.057473 255 0 0
-0.181379 -0.044946 0.158554 255 0 0
0.530759 0.057364 -0.376320 255 0 0
-0.570290 0.409374 0.318112 255 0 0
-0.357476 0.600291 -0.424535 255 0 0
0.289625 -0.038814 0.314590 255 0 0
-0.296694 0.640028 0.178739 255 0 0
-0.199332 0.356901 0.063164 255 0 0
0.588709 0.541014 -0.276453 255 0 0
0.272950 -0.090141 0.304490 255 0 0
-0.377451 -0.090141 0.313189 255 0 0
0.258010 -0.575367 -0.442610 255 0 0
-0.137097 0.600291 -0.275141 255 0 0
-0.462781 -0.393157 -0.244932 127 0 127
0.210495 -0.407780 0.304082 127 0 127
0.123429 -0.633215 -0.156354 255 0 0
0.437499 -0.348428 -0.442610 255 0 0
-0.030120 0.641519 -0.376498 255 0 0
-0.440759 -0.329791 0.385247 153 76 0
-0.295794 -0.038814 0.275179 255 0 0
-0.570290 -0.456783 0.261620 255 0 0
-0.115742 -0.407780 -0.232124 127 0 127
0.430361 0.213264 -0.442610 255 0 0
0.588709 -0.649104 0.250174 255 0 0
-0.250091 -0.195005 0.433925 153 76 0
-0.275476 0.600291 0.003850 255 0 0
0.588709 -0.123485 -0.140282 255 0 0
-0.227885 0.326439 0.433925 76 0 153
0.036189 0.600291 -0.256078 255 0 0
0.588709 0.410243 -0.029706 255 0 0
-0.313132 -0.633215 -0.235777 255 0 0
0.498535 -0.093987 0.353319 255 0 0
-0.407428 0.600291 -0.000960 255 0 0
-0.372611 0.600291 -0.287623 255 0 0
-0.268392 -0.407780 0.012698 127 0 127
-0.489308 -0.051206 0.398941 255 0 0
-0.373938 -0.090141 0.079286 255 0 0
-0.356989 -0.633215 -0.290081 255 0 0
0.315672 0.640028 -0.280290 255 0 0
-0.202371 -0.018884 -0.072538 127 127 0
-0.167938 -0.018884 -0.008044 127 127 0
0.588709 0.619796 0.240226 255 0 0
0.517168 -0.539687 0.433925 153 76 0
-0.570290 0.349318 0.297218 255 0 0
-0.131608 0.566213 -0.442610 255 0 0
-0.387266 0.569130 0.385247 255 0 0
0.043572 0.640028 0.000009 255 0 0
-0.060304 -0.197961 0.385247 153 76 0
-0.050737 -0.444884 -0.392938 255 0 0
0.507419 -0.682886 -0.077152 255 0 0
-0.512340 0.122054 -0.204017 255 0 0
0.472957 -0.363321 0.369619 127 0 127
0.431642 -0.407780 -0.308713 127 0 127
-0.443445 0.548652 -0.392938 255 0 0
-0.269457 0.356901 -0.367857 255 0 0
-0.168001 -0.578088 0.425646 153 76 0
0.530759 -0.340072 0.340847 255 0 0
-0.007590 -0.455494 0.405447 76 0 153
-0.570290 -0.331805 0.182137 255 0 0
0.103019 -0.569946 0.419087 76 0 153
-0.512340 0.148332 0.032781 255 0 0
-0.531031 0.568922 -0.442610 255 0 0
0.218308 -0.569946 0.414167 76 0 153
0.147201 -0.097685 -0.442610 255 0 0
0.470386 0.482064 -0.442610 255 0 0
-0.570290 0.584680 -0.175204 255 0 0
-0.316732 0.356901 0.112881 255 0 0
0.311618 -0.222121 -0.392938 255 0 0
-0.570290 -0.270221 -0.243513 255 0 0
-0.046212 0.075582 0.405447 76 0 153
-0.151427 0.641684 0.058739 255 0 0
0.437951 -0.585320 0.385247 153 76 0
-0.570290 0.401990 -0.381451 255 0 0
0.032445 -0.038814 -0.361336 255 0 0
-0.002288 -0.018884 -0.057751 127 127 0
0.368533 0.505528 -0.442610 255 0 0
-0.512340 0.184493 -0.032158 255 0 0
-0.488801 -0.626701 -0.231612 255 0 0
0.125195 -0.018884 0.031658 127 127 0
0.375812 0.401584 0.385247 255 0 0
-0.069931 0.334627 -0.392938 255 0 0
-0.269132 -0.038814 -0.265364 255 0 0
-0.478436 -0.363321 0.351168 127 0 127
-0.390034 0.007100 0.385247 76 0 153
0.084914 0.019857 0.425646 76 0 153
0.588709 -0.060802 0.369107 255 0 0
0.333962 -0.645579 -0.442610 255 0 0
-0.570290 -0.590790 -0.390359 255 0 0
0.340185 -0.421282 -0.392938 255 0 0
0.390192 -0.038814 0.244553 255 0 0
0.479830 0.509568 0.385247 255 0 0
-0.348036 0.162394 0.405447 76 0 153
-0.268953 -0.053529 0.385247 76 0 153
-0.295009 0.356901 -0.162033 255 0 0
0.010464 -0.494186 -0.392938 255 0 0
0.530759 0.286402 -0.198034 255 0 0
-0.570290 -0.034241 -0.395627 255 0 0
0.499922 -0.631340 -0.107518 255 0 0
0.465644 -0.180382 0.447648 204 51 127
-0.251528 0.641684 -0.389603 255 0 0
-0.540619 -0.682886 0.312053 255 0 0
0.314991 -0.407780 -0.134190 127 0 127
-0.462694 -0.407780 0.087096 127 0 127
-0.205617 -0.363321 0.371749 127 0 127
0.588709 -0.542586 0.109760 255 0 0
-0.369286 0.356901 0.273121 255 0 0
0.140622 0.356901 -0.102446 255 0 0
0.236154 -0.055954 0.385247 255 0 0
0.588709 -0.262094 0.038795 255 0 0
-0.235641 -0.262180 0.405447 153 76 0
0.530759 -0.440191 -0.244338 255 0 0
-0.339147 -0.090141 0.124524 255 0 0
0.588709 -0.158586 -0.256199 255 0 0
-0.557809 0.435640 -0.442610 255 0 0
0.530759 0.269191 -0.267942 255 0 0
0.067590 0.697404 -0.392938 255 0 0
0.420846 0.356901 0.242712 255 0 0
0.530759 -0.578625 -0.038358 255 0 0
0.217407 -0.407780 -0.313045 127 0 127
0.138794 -0.090141 0.350700 255 0 0
0.112887 0.356901 0.001458 255 0 0
-0.570290 -0.286878 -0.055281 255 0 0
-0.570290 -0.662954 -0.246118 255 0 0
-0.180140 0.336667 0.433925 76 0 153
-0.570290 -0.332622 -0.310186 255 0 0
0.250904 -0.090141 -0.012443 255 0 0
-0.135205 -0.633215 -0.064068 255 0 0
0.170661 -0.038814 -0.368278 255 0 0
-0.232110 0.400478 0.433925 255 0 0
-0.447917 0.633758 0.455799 255 0 0
-0.095458 0.251204 0.385247 76 0 153
-0.384369 -0.633215 0.122500 255 0 0
-0.499506 0.724469 -0.436391 255 0 0
0.552182 0.214563 -0.442610 255 0 0
-0.512034 0.329453 -0.208090 255 0 0
-0.570290 -0.037227 -0.303177 255 0 0
0.234380 0.271636 -0.392938 255 0 0
-0.540155 0.318021 0.385247 255 0 0
0.506442 -0.363321 -0.012364 127 0 127
0.515663 -0.358722 0.075912 255 0 0
0.290103 -0.090141 -0.065251 255 0 0
0.044167 0.161075 -0.442610 255 0 0
0.313907 -0.018884 -0.078571 127 127 0
0.005579 -0.384537 -0.392938 255 0 0
-0.078330 0.356901 -0.171414 255 0 0
-0.056956 0.640028 0.332107 255 0 0
0.023482 0.600291 0.160899 255 0 0
0.288049 0.152586 -0.442610 255 0 0
-0.153762 0.640028 -0.296061 255 0 0
-0.570290 0.084732 -0.209915 255 0 0
0.386983 0.640028 0.420531 255 0 0
-0.422458 0.061595 -0.392938 255 0 0
-0.512340 -0.432391 0.272157 255 0 0
0.150513 0.436070 -0.442610 255 0 0
-0.512340 -0.265853 -0.259551 255 0 0
-0.076544 -0.328954 0.405447 76 0 153
-0.196513 -0.682886 -0.223488 255 0 0
0.021984 -0.231390 -0.392938 255 0 0
-0.570290 0.411897 -0.015883 255 0 0
0.588709 -0.183907 0.352635 255 0 0
-0.110356 -0.050844 -0.442610 255 0 0
0.049248 -0.090141 0.103799 255 0 0
-0.387921 0.600291 0.324771 255 0 0
0.530759 -0.507307 -0.371035 255 0 0
-0.129720 -0.200406 -0.392938 255 0 0
0.588709 0.081125 0.334502 255 0 0
0.588709 0.117142 -0.258812 255 0 0
0.588709 0.529049 0.116021 255 0 0
-0.562564 -0.476191 0.401983 255 0 0
0.356346 -0.682886 0.227586 255 0 0
-0.238891 0.546797 -0.392938 255 0 0
0.424203 0.497351 0.385247 255 0 0
0.032223 0.600291 0.041815 255 0 0
0.588709 -0.490101 -0.274173 255 0 0
-0.197266 -0.090141 -0.189808 255 0 0
0.588709 -0.032822 0.108954 255 0 0
0.329980 0.079884 0.405447 153 0 76
-0.474493 0.247983 0.385247 76 0 153
0.477341 -0.074633 -0.442610 255 0 0
0.058463 -0.090141 0.213071 255 0 0
-0.131172 0.640028 0.223065 255 0 0
0.411897 -0.458712 0.405447 153 76 0
-0.403445 0.356901 -0.203698 255 0 0
0.332805 -0.633215 0.066689 255 0 0
-0.078295 -0.682886 -0.397843 255 0 0
0.570166 -0.509302 0.385247 153 76 0
-0.562564 0.047344 0.422056 76 0 153
-0.316997 -0.090141 -0.053109 255 0 0
-0.176459 0.600291 0.390403 255 0 0
-0.489761 0.600291 -0.143873 255 0 0
-0.041296 -0.044946 -0.187878 255 0 0
0.148605 0.600291 -0.347860 255 0 0
0.588709 -0.649908 0.031367 255 0 0
0.588709 0.222175 0.304909 255 0 0
-0.429266 0.641684 0.063135 255 0 0
0.235834 -0.682886 -0.137857 255 0 0
-0.532821 0.458892 0.433925 255 0 0
0.524803 -0.125217 -0.442610 255 0 0
0.265155 -0.245195 -0.392938 255 0 0
-0.134048 -0.178847 0.489065 204 51 127
0.480098 -0.682886 0.092713 255 0 0
-0.268895 -0.633215 0.084345 255 0 0
0.007937 -0.633215 0.204052 255 0 0
0.283242 -0.090141 0.046706 255 0 0
0.012539 0.249308 -0.442610 255 0 0
0.295247 -0.479237 0.405447 76 0 153
0.588709 0.312865 0.233992 255 0 0
0.318912 0.356901 -0.051135 255 0 0
0.337942 -0.682886 -0.335258 255 0 0
0.195613 0.291999 0.433925 76 0 153
0.588709 0.638411 0.122785 255 0 0
-0.570290 -0.588482 -0.162008 255 0 0
0.053672 0.356901 0.239008 255 0 0
-0.009013 -0.633215 -0.340507 255 0 0
0.588709 -0.314162 0.269130 255 0 0
-0.357792 -0.255966 -0.442610 255 0 0
0.338704 -0.633215 0.149616 255 0 0
0.089444 -0.090141 -0.132667 255 0 0
-0.216193 -0.025017 0.095549 127 127 0
0.292892 -0.358722 0.381841 127 0 127
0.447033 -0.370640 -0.392938 255 0 0
0.146802 0.600291 0.168903 255 0 0
0.573644 -0.043205 -0.442610 255 0 0
-0.380895 -0.633215 0.317576 255 0 0
-0.147876 -0.002557 0.385247 76 0 153
-0.058136 0.356901 0.187319 255 0 0
0.139829 -0.633215 0.288388 255 0 0
-0.465142 0.041256 -0.442610 255 0 0
0.055966 -0.343525 -0.442610 255 0 0
0.588709 0.207211 -0.060918 255 0 0
-0.335204 -0.682886 0.037386 255 0 0
0.443703 0.600291 -0.359720 255 0 0
-0.495057 -0.098068 -0.220531 255 0 0
0.314892 -0.284579 0.405447 76 0 153
0.399550 -0.038814 0.280319 255 0 0
-0.096001 -0.132451 -0.442610 255 0 0
0.279983 0.600291 -0.294637 255 0 0
0.200228 -0.025017 -0.021956 127 127 0
0.235394 -0.682886 -0.367211 255 0 0
0.530759 0.063300 0.278816 255 0 0
0.208042 -0.682886 -0.092447 255 0 0
-0.152320 -0.682886 -0.320166 255 0 0
-0.443184 -0.482198 0.433925 153 76 0
0.588709 0.471040 0.342702 255 0 0
0.588709 0.238277 0.184577 255 0 0
0.040114 0.184699 0.405447 76 0 153
-0.406485 -0.476122 -0.442610 255 0 0
0.253434 0.641684 -0.285518 255 0 0
-0.119787 0.640028 -0.322825 255 0 0
-0.081184 0.389188 0.423445 255 0 0
0.406227 0.637474 0.450754 255 0 0
0.044659 0.558376 -0.442610 255 0 0
-0.473035 0.068153 0.433925 76 0 153
0.530759 -0.485607 0.275583 255 0 0
-0.256378 0.356901 -0.186885 255 0 0
-0.120454 0.464804 0.385247 255 0 0
-0.522473 0.116567 0.433925 76 0 153
-0.415239 0.640028 0.158352 255 0 0
-0.283795 0.026807 0.385247 76 0 153
-0.310826 0.078496 0.405447 76 0 153
-0.401628 -0.407780 0.043803 127 0 127
0.182078 0.640028 0.353422 255 0 0
0.315734 -0.152695 0.485357 204 51 127
-0.057800 0.356901 -0.108035 255 0 0
-0.099194 0.600291 0.322482 255 0 0
0.165945 0.132801 0.405447 76 0 153
0.560893 0.641684 0.294337 255 0 0
-0.417626 -0.156819 -0.392938 255 0 0
0.175686 0.694431 -0.392938 255 0 0
0.115978 -0.407780 0.018879 127 0 127
-0.441082 -0.038814 -0.096618 255 0 0
0.412650 0.640028 -0.071947 255 0 0
0.183520 -0.018884 0.112675 127 127 0
0.588709 0.176702 -0.153929 255 0 0
0.530759 -0.182856 0.031228 255 0 0
0.376850 0.443483 -0.392938 255 0 0
-0.174224 0.356901 -0.079922 255 0 0
0.204082 -0.090141 -0.197479 255 0 0
0.487663 0.104651 0.433925 76 0 153
0.044232 0.264252 0.433925 76 0 153
0.195884 0.558910 0.385247 255 0 0
-0.570290 0.117072 -0.069597 255 0 0
-0.570290 -0.634908 -0.029501 255 0 0
-0.211182 0.600291 -0.011232 255 0 0
-0.460612 0.640028 -0.371528 255 0 0
-0.093881 -0.018884 0.018125 127 127 0
0.513205 0.600291 -0.075949 255 0 0
0.322057 -0.219837 0.425646 153 76 0
-0.340998 0.418007 0.433925 153 0 76
-0.091546 0.640028 -0.053477 255 0 0
0.051065 -0.044946 0.228811 255 0 0
-0.570290 -0.645049 -0.211445 255 0 0
0.588709 -0.006246 0.229918 255 0 0
0.321178 0.356901 -0.176906 255 0 0
-0.570290 -0.144594 -0.411855 255 0 0
0.080816 0.587873 0.416461 255 0 0
-0.430610 0.600291 -0.091473 255 0 0
-0.223522 0.630572 -0.442610 255 0 0
0.216743 0.436667 0.385247 255 0 0
-0.323936 -0.633215 -0.165814 255 0 0
0.530759 0.322670 -0.087635 255 0 0
0.303757 0.356901 -0.294454 255 0 0
0.381659 0.478318 0.426143 153 0 76
-0.532839 -0.121266 -0.442610 255 0 0
-0.487747 0.600291 -0.420814 255 0 0
0.588709 0.506982 -0.276152 255 0 0
0.390185 -0.304744 -0.442610 255 0 0
-0.570290 -0.022377 0.312970 255 0 0
0.387405 0.050564 -0.392938 255 0 0
0.180739 -0.575391 0.385247 153 76 0
-0.512161 -0.129015 -0.043049 255 0 0
-0.019107 0.597104 -0.442610 255 0 0
0.481199 -0.391404 -0.156704 127 0 127
0.196508 -0.545223 -0.392938 255 0 0
-0.087598 -0.044946 0.275420 255 0 0
-0.461013 -0.633215 0.026663 255 0 0
-0.081892 -0.633215 0.311959 255 0 0
0.047665 -0.633215 0.151383 255 0 0
0.530759 0.217960 0.227698 255 0 0
-0.512340 -0.205907 0.251942 255 0 0
-0.218112 -0.682886 0.080849 255 0 0
0.291146 -0.038814 0.373281 255 0 0
-0.145652 0.641684 0.126522 255 0 0
-0.444054 0.495615 0.433925 255 0 0
-0.322072 -0.090141 0.332325 255 0 0
-0.422727 -0.083020 0.385247 153 76 0
0.398937 0.169902 0.405447 76 0 153
0.390950 0.248398 0.462170 76 0 153
-0.437832 0.104801 -0.442610 255 0 0
0.215858 -0.121883 0.385247 153 76 0
-0.512340 -0.143230 0.086821 255 0 0
-0.113366 -0.549222 0.405447 76 0 153
-0.393653 0.356901 0.249777 255 0 0
-0.326307 0.451722 -0.392938 255 0 0
-0.570290 0.317654 -0.371263 255 0 0
-0.570290 -0.093973 0.019801 255 0 0
0.149245 -0.407780 0.266469 127 0 127
-0.322442 -0.378518 0.335687 127 0 127
-0.551905 -0.682886 0.055746 255 0 0
-0.014854 -0.044946 -0.221521 255 0 0
0.141890 -0.682886 -0.254650 255 0 0
0.210634 -0.090141 0.060033 255 0 0
0.536845 -0.390162 0.433925 153 76 0
-0.473797 0.232573 -0.442610 255 0 0
0.072385 -0.542581 -0.442610 255 0 0
-0.539784 -0.261695 -0.442610 255 0 0
0.244124 -0.279248 0.405447 76 0 153
0.268553 0.435983 -0.442610 255 0 0
0.436128 0.356901 0.130654 255 0 0
-0.537610 0.641684 0.101407 255 0 0
0.314986 0.199280 0.405447 153 0 76
0.555512 -0.251261 0.433925 153 76 0
0.088384 -0.301210 0.405447 76 0 153
0.115924 0.102398 0.405447 153 0 76
-0.278256 0.507249 0.426143 153 0 76
-0.570290 0.075219 -0.154811 255 0 0
0.588709 -0.433165 -0.312174 255 0 0
0.459347 0.343061 0.385247 76 0 153
-0.022560 -0.172392 0.385247 153 76 0
0.553041 -0.682886 -0.388052 255 0 0
0.224081 -0.407780 0.067050 127 0 127
-0.309775 -0.407780 -0.274699 127 0 127
0.559452 -0.401412 0.385247 255 0 0
0.585561 -0.312997 -0.442610 255 0 0
0.505008 0.501369 -0.442610 255 0 0
-0.509358 -0.426839 -0.392938 255 0 0
0.000709 -0.633215 0.338285 255 0 0
0.185721 -0.090141 0.180798 255 0 0
0.080068 -0.090141 0.034041 255 0 0
0.125773 -0.044946 0.089266 255 0 0
-0.340023 -0.434180 -0.392938 255 0 0
0.225209 0.389188 0.386384 255 0 0
-0.512340 -0.571577 0.348488 255 0 0
0.288974 -0.682886 -0.243930 255 0 0
-0.125132 0.600291 -0.034198 255 0 0
-0.203121 0.023443 0.425646 153 0 76
-0.090244 -0.407780 -0.039896 127 0 127
-0.287812 0.179123 -0.392938 255 0 0
0.502473 0.641684 -0.043188 255 0 0
-0.201440 0.641684 -0.068031 255 0 0
0.098884 0.136210 0.405447 76 0 153
0.108710 -0.018884 -0.176818 127 127 0
-0.447294 -0.090141 0.360745 255 0 0
0.566072 0.689329 -0.442610 255 0 0
0.530759 -0.274194 -0.223334 255 0 0
-0.570290 -0.233873 0.155370 255 0 0
0.458786 0.600291 -0.207183 255 0 0
0.588709 0.561318 -0.373069 255 0 0
-0.146396 0.356901 0.104956 255 0 0
-0.334355 0.641684 -0.277399 255 0 0
-0.300618 -0.531556 -0.442610 255 0 0
0.361438 0.235040 0.433925 76 0 153
0.588709 0.475657 -0.117851 255 0 0
0.418159 -0.038814 -0.221719 255 0 0
-0.290137 0.389188 0.398939 255 0 0
0.320889 0.154750 -0.392938 255 0 0
-0.543333 -0.682886 0.160490 255 0 0
0.213826 -0.682886 -0.410507 255 0 0
-0.148816 0.181434 0.405447 76 0 153
0.530759 -0.511559 -0.009000 255 0 0
-0.512340 -0.177930 -0.151682 255 0 0
0.355489 0.600291 0.145283 255 0 0
0.411958 -0.081035 0.414058 153 76 0
0.159944 -0.407780 -0.057153 127 0 127
0.445749 -0.682886 -0.302291 255 0 0
0.149624 -0.603397 -0.442610 255 0 0
0.530759 0.040538 0.342236 255 0 0
0.160481 0.356901 0.049590 255 0 0
0.500400 -0.358722 0.045685 127 0 127
-0.312341 -0.633215 0.105761 255 0 0
-0.348443 0.600291 -0.175063 255 0 0
-0.532717 0.600291 -0.368761 255 0 0
0.482591 -0.291893 0.433925 153 76 0
-0.285350 -0.455618 -0.442610 255 0 0
-0.570290 0.216650 -0.147656 255 0 0
-0.464682 -0.645517 0.410414 153 76 0
-0.512340 0.015155 0.215916 255 0 0
-0.570290 0.451592 -0.348548 255 0 0
-0.291098 -0.682886 0.108358 255 0 0
0.588709 0.162202 -0.394059 255 0 0
-0.375025 -0.633215 0.005452 255 0 0
0.331178 -0.682886 -0.138708 255 0 0
0.435430 -0.022138 -0.392938 255 0 0
-0.570290 -0.181081 -0.067349 255 0 0
-0.508062 -0.021319 -0.282051 255 0 0
0.023067 -0.407780 -0.321959 127 0 127
0.030165 0.231997 0.385247 76 0 153
-0.209242 -0.188371 0.499368 204 51 127
-0.089220 0.356901 0.365022 255 0 0
-0.378964 0.287809 0.466332 0 0 255
-0.467283 0.356901 0.010459 255 0 0
-0.131262 -0.159345 0.433925 153 76 0
0.517336 -0.427262 0.385247 255 0 0
0.528605 -0.127348 -0.082394 255 0 0
-0.478075 -0.363321 -0.356729 127 0 127
0.426832 -0.678166 0.385247 255 0 0
0.588709 0.195962 0.090292 255 0 0
0.324299 -0.682886 0.361273 255 0 0
-0.350889 0.641684 0.157326 255 0 0
0.384884 -0.633215 0.268357 255 0 0
-0.353616 -0.547920 0.405447 153 76 0
-0.370606 0.724469 -0.421183 255 0 0
0.190452 -0.136154 0.433925 153 76 0
-0.142650 -0.090141 -0.151573 255 0 0
-0.298305 -0.608001 0.385247 153 76 0
0.150959 0.140191 -0.442610 255 0 0
0.387989 0.356901 0.153991 255 0 0
0.322841 -0.682886 -0.198059 255 0 0
0.291874 0.356901 -0.223141 255 0 0
-0.377759 -0.682886 0.296858 255 0 0
-0.149834 -0.044946 0.188756 255 0 0
-0.422038 0.150019 -0.442610 255 0 0
0.006540 -0.081035 0.425091 153 76 0
-0.147382 -0.038814 -0.314758 255 0 0
0.453720 0.099260 0.385247 76 0 153
-0.235663 -0.087818 0.433925 153 76 0
-0.223304 -0.407780 0.126545 127 0 127
-0.570290 0.115664 -0.423480 255 0 0
0.139572 -0.682886 -0.187052 255 0 0
-0.105601 -0.362208 0.385247 127 0 127
-0.562117 -0.081035 0.416892 153 76 0
-0.537532 -0.682886 -0.399442 255 0 0
0.208687 0.600291 0.201581 255 0 0
-0.570290 0.443626 -0.118831 255 0 0
0.084714 -0.017088 0.433925 76 0 153
0.377215 0.352209 0.433925 76 0 153
0.382476 0.667215 -0.392938 255 0 0
-0.512340 0.295522 0.292458 255 0 0
0.463963 0.307714 -0.392938 255 0 0
-0.327524 -0.407780 -0.199106 127 0 127
-0.063426 0.421041 0.385247 255 0 0
0.325532 0.447951 0.385247 255 0 0
-0.185396 0.480994 0.385247 255 0 0
0.219997 -0.090141 0.343339 255 0 0
0.530759 0.314823 -0.261950 255 0 0
0.530759 0.067014 0.144595 255 0 0
0.359891 0.031226 0.420429 76 0 153
-0.133634 0.640028 0.401637 255 0 0
0.094480 -0.682886 -0.418400 255 0 0
0.031114 -0.018884 0.178397 127 127 0
-0.075067 0.600291 0.384680 255 0 0
0.385077 -0.038814 -0.128738 255 0 0
-0.512340 -0.174530 0.012900 255 0 0
0.150699 -0.090141 -0.293186 255 0 0
0.588709 0.580216 0.085609 255 0 0
0.550528 0.640028 0.407704 255 0 0
-0.097615 0.356901 0.300634 255 0 0
0.158075 -0.569946 0.412038 76 0 153
-0.512340 0.175597 -0.075587 255 0 0
-0.512340 -0.254571 0.013856 255 0 0
-0.108237 -0.044946 -0.130391 255 0 0
0.467633 -0.682886 -0.088210 255 0 0
-0.385392 0.504228 0.385247 255 0 0
-0.570290 0.086782 -0.365615 255 0 0
0.530759 0.141648 0.059686 255 0 0
0.164468 -0.682886 0.049385 255 0 0
0.073624 0.640028 0.211819 255 0 0
0.036451 0.600291 0.338536 255 0 0
0.334807 -0.633215 -0.024030 255 0 0
-0.011738 0.044185 -0.442610 255 0 0
0.362241 0.118322 -0.392938 255 0 0
-0.512340 -0.581619 -0.197561 255 0 0
-0.479153 0.048777 -0.392938 255 0 0
0.369205 0.117587 0.405447 76 0 153
0.580982 -0.187268 0.407546 153 76 0
-0.036519 0.552861 0.426875 153 0 76
-0.211324 -0.255674 -0.442610 255 0 0
-0.198611 0.124501 -0.392938 255 0 0
-0.010300 0.356901 -0.213576 255 0 0
0.057597 -0.682886 0.377772 255 0 0
0.201120 0.600291 -0.196689 255 0 0
-0.254709 -0.407780 0.223644 127 0 127
0.196195 -0.407780 -0.174532 127 0 127
-0.253807 -0.018884 0.007174 127 127 0
0.413888 -0.407780 0.187462 127 0 127
-0.247607 -0.682886 -0.173769 255 0 0
-0.187555 -0.018884 -0.171299 127 127 0
-0.512340 -0.567810 0.000134 255 0 0
0.194830 0.066328 -0.442610 255 0 0
0.588709 0.428905 -0.292890 255 0 0
0.215201 -0.090141 -0.014489 255 0 0
0.588709 0.614972 -0.271138 255 0 0
-0.230183 0.261285 -0.442610 255 0 0
0.373271 -0.682886 -0.034866 255 0 0
-0.363037 -0.090141 0.243888 255 0 0
-0.570290 0.138823 -0.263516 255 0 0
0.513204 0.640028 -0.010372 255 0 0
-0.570290 0.217365 -0.350360 255 0 0
0.024689 -0.197099 0.433925 153 76 0
-0.512340 0.217218 0.167787 255 0 0
-0.282438 -0.633215 0.290912 255 0 0
0.189550 -0.018884 0.013814 127 127 0
0.301760 0.641684 -0.028578 255 0 0
-0.235339 -0.018884 0.148696 127 127 0
0.521438 0.500823 0.433925 255 0 0
-0.570290 -0.401449 0.142447 255 0 0
0.588709 0.221950 -0.204757 255 0 0
-0.136305 -0.682886 0.307826 255 0 0
-0.085486 0.490851 0.426143 153 0 76
0.530759 -0.206805 0.273679 255 0 0
-0.044410 -0.323629 -0.392938 255 0 0
-0.313033 0.454699 0.433925 153 0 76
0.467809 0.208949 0.385247 76 0 153
-0.231378 0.374340 -0.392938 255 0 0
-0.056143 -0.151559 0.433925 153 76 0
0.400476 0.159197 -0.442610 255 0 0
-0.152446 -0.176374 0.385247 153 76 0
-0.193101 -0.407780 0.188035 127 0 127
-0.391424 0.202468 0.385433 76 0 153
-0.448375 -0.391890 0.329051 127 0 127
0.167221 -0.069721 0.385247 255 0 0
0.588709 -0.372886 -0.294196 255 0 0
0.452792 -0.682886 -0.427767 255 0 0
0.525257 0.640028 -0.111452 255 0 0
-0.512340 0.106064 0.368841 76 0 153
0.548951 -0.667901 0.385247 255 0 0
-0.098404 0.173978 -0.392938 255 0 0
-0.135540 -0.231705 -0.442610 255 0 0
-0.187968 0.356901 0.182524 255 0 0
0.428965 0.009833 -0.442610 255 0 0
0.588709 -0.201060 -0.407606 255 0 0
0.051793 0.641684 0.444450 255 0 0
-0.389304 -0.038814 0.203941 255 0 0
-0.158073 -0.018884 0.141739 127 127 0
-0.570290 -0.590175 0.279646 255 0 0
0.499576 -0.262509 0.433925 153 76 0
-0.422223 -0.633215 0.286405 255 0 0
-0.385184 0.299475 -0.392938 255 0 0
-0.439820 -0.038814 0.313862 255 0 0
0.201474 0.641684 -0.066790 255 0 0
-0.243954 0.600291 0.270436 255 0 0
-0.109096 -0.633215 0.267539 255 0 0
-0.512340 -0.255920 -0.150561 255 0 0
0.473056 0.281748 -0.442610 255 0 0
-0.423799 0.284005 0.455049 0 0 255
0.266624 0.054915 0.405447 76 0 153
0.041370 0.401975 0.433925 255 0 0
-0.570290 -0.090990 -0.253813 255 0 0
0.179468 0.493163 -0.442610 255 0 0
0.379023 -0.373728 -0.392938 255 0 0
-0.316411 -0.682886 -0.269014 255 0 0
-0.177440 -0.187469 0.433925 153 76 0
-0.171165 0.217318 -0.392938 255 0 0
0.152959 -0.364449 -0.343378 127 0 127
0.502432 0.489905 -0.392938 255 0 0
-0.187921 -0.407780 -0.036654 127 0 127
0.165931 -0.110496 0.385247 153 76 0
-0.570290 -0.243245 0.268381 255 0 0
0.055087 -0.566700 -0.392938 255 0 0
0.345411 0.389188 0.414549 76 0 153
-0.570290 -0.120692 0.361600 255 0 0
0.461660 -0.188309 -0.392938 255 0 0
-0.043202 0.125540 -0.392938 255 0 0
0.530759 -0.275549 0.287947 255 0 0
-0.030966 -0.608148 -0.392938 255 0 0
-0.025237 0.641684 0.092223 255 0 0
-0.570290 0.625384 -0.302512 255 0 0
0.588709 0.295227 0.151792 255 0 0
0.163132 -0.156865 -0.442610 255 0 0
-0.014525 0.600291 -0.178589 255 0 0
-0.570290 -0.635900 0.282969 255 0 0
-0.286147 0.640028 -0.307182 255 0 0
-0.099073 -0.090141 0.003294 255 0 0
-0.321961 0.641684 -0.056019 255 0 0
0.530759 -0.168975 0.150847 255 0 0
-0.417921 0.600291 -0.328580 255 0 0
-0.486948 0.356186 0.354800 255 0 0
0.580982 -0.372539 0.409832 153 76 0
-0.024373 -0.044946 0.156989 255 0 0
-0.263487 0.356901 -0.241505 255 0 0
-0.417473 -0.536162 0.419464 153 76 0
0.101430 -0.633215 0.091876 255 0 0
-0.455333 -0.682886 0.212383 255 0 0
0.502670 -0.038339 0.233374 255 0 0
0.545635 -0.422420 -0.442610 255 0 0
-0.434678 0.356901 0.049560 255 0 0
-0.570290 -0.566803 -0.231319 255 0 0
-0.381499 0.356901 0.072996 255 0 0
0.409912 0.356901 0.088329 255 0 0
0.100235 0.600291 0.338124 255 0 0
-0.490649 0.600291 0.409892 255 0 0
-0.301929 0.640028 -0.093109 255 0 0
-0.512340 0.210499 -0.132086 255 0 0
0.127923 -0.477679 -0.442610 255 0 0
0.151400 0.172255 0.405447 153 0 76
0.180600 -0.633215 -0.076670 255 0 0
0.495485 -0.682886 0.217974 255 0 0
0.129358 -0.038814 0.322238 255 0 0
0.588709 0.406734 0.273546 255 0 0
-0.143622 -0.633215 0.145155 255 0 0
-0.163055 0.641684 -0.390247 255 0 0
-0.570290 0.612597 0.072120 255 0 0
0.552943 0.600291 0.031087 255 0 0
-0.201583 0.640028 0.172272 255 0 0
0.272694 -0.256698 0.405447 153 76 0
0.228118 0.625821 -0.442610 255 0 0
-0.570290 -0.582185 -0.104762 255 0 0
-0.512340 0.232025 -0.328365 255 0 0
0.307120 -0.042674 -0.442610 255 0 0
-0.237684 -0.185005 -0.442610 255 0 0
0.402340 -0.682886 -0.118090 255 0 0
-0.458600 -0.081035 0.432710 76 0 153
-0.157399 -0.633215 0.001452 255 0 0
0.328213 0.602583 -0.442610 255 0 0
0.476724 -0.682886 0.170832 255 0 0
0.588709 0.509473 0.357673 255 0 0
-0.254513 0.429273 -0.442610 255 0 0
-0.252295 0.641684 0.227590 255 0 0
0.476465 -0.363321 0.328366 127 0 127
-0.570290 0.284497 -0.289211 255 0 0
0.274163 0.352071 0.385247 255 0 0
-0.498002 -0.199574 -0.442610 255 0 0
0.253125 0.202468 0.385248 76 0 153
-0.209909 0.641684 -0.277054 255 0 0
-0.185878 0.369984 0.385247 255 0 0
-0.406620 0.600291 0.081572 255 0 0
-0.320203 -0.062765 0.385247 255 0 0
-0.180928 -0.407780 0.136351 127 0 127
0.530759 -0.416165 0.296199 255 0 0
0.245170 0.320854 0.433925 76 0 153
0.525057 0.343191 -0.020630 255 0 0
0.588709 -0.399189 -0.095137 255 0 0
0.530759 0.270946 -0.300642 255 0 0
-0.412996 -0.133775 0.385247 153 76 0
0.094322 -0.044946 0.118673 255 0 0
0.190891 0.660123 -0.442610 255 0 0
0.096061 -0.407780 0.297548 127 0 127
-0.570290 0.617552 0.367573 255 0 0
-0.512340 0.073486 -0.187806 255 0 0
0.069497 0.641684 0.031508 255 0 0
0.040898 0.277848 -0.442610 255 0 0
-0.283701 0.278881 -0.392938 255 0 0
0.577417 0.641684 0.438935 255 0 0
0.588709 -0.470390 0.075346 255 0 0
0.110091 0.215060 -0.392938 255 0 0
-0.189204 0.693755 -0.442610 255 0 0
0.588709 0.305376 -0.186483 255 0 0
0.226400 -0.445038 -0.392938 255 0 0
0.238865 -0.363321 0.377215 127 0 127
0.530759 -0.535957 -0.159813 255 0 0
0.110611 0.600291 0.024011 255 0 0
-0.404775 0.552175 -0.442610 255 0 0
-0.145170 0.146763 -0.442610 255 0 0
-0.193796 -0.391789 0.405447 76 0 153
0.240586 -0.682886 0.310528 255 0 0
0.588709 -0.301285 -0.145598 255 0 0
-0.125560 -0.090141 0.232228 255 0 0
0.350832 -0.038814 0.051961 255 0 0
-0.512340 0.074212 -0.337884 255 0 0
0.000276 -0.597895 0.385247 153 76 0
-0.043536 -0.633215 -0.217607 255 0 0
-0.084925 -0.384620 0.335687 127 0 127
0.508729 0.148682 -0.442610 255 0 0
0.333127 -0.642185 0.433925 153 76 0
0.312974 0.356901 0.073030 255 0 0
-0.037239 0.490304 0.426143 153 0 76
0.303318 -0.090141 -0.344370 255 0 0
0.588709 0.093929 0.180676 255 0 0
0.269815 -0.633215 0.288672 255 0 0
0.283026 0.641684 -0.265798 255 0 0
0.299577 -0.090141 -0.230096 255 0 0
0.152280 0.371778 -0.442610 255 0 0
-0.264078 -0.044946 -0.111952 255 0 0
-0.092062 0.115591 -0.392938 255 0 0
-0.388654 0.327126 0.433925 76 0 153
-0.045256 -0.018884 -0.307027 127 127 0
0.136866 -0.294515 0.405447 153 76 0
0.237516 -0.174770 0.385247 153 76 0
-0.570290 -0.651101 0.193984 255 0 0
0.019473 0.641684 0.235488 255 0 0
-0.257641 0.254814 0.433925 76 0 153
-0.251497 -0.581096 0.385247 153 76 0
0.587869 -0.096687 -0.442610 255 0 0
-0.407676 0.356901 0.109928 255 0 0
-0.275058 0.458020 -0.392938 255 0 0
0.588709 0.179617 -0.217710 255 0 0
-0.142583 -0.090141 -0.041309 255 0 0
-0.081575 0.002823 0.385247 76 0 153
0.530759 0.249848 0.368255 255 0 0
0.517302 -0.032172 -0.322444 255 0 0
-0.040261 -0.633215 -0.072686 255 0 0
-0.239891 0.600291 0.099281 255 0 0
0.140339 -0.682886 0.196697 255 0 0
-0.570290 0.122429 -0.325777 255 0 0
-0.065761 -0.018884 -0.014127 127 127 0
0.005731 -0.090141 0.031115 255 0 0
-0.093189 -0.385828 -0.392938 255 0 0
0.588709 0.412519 -0.092195 255 0 0
0.245365 -0.293767 -0.392938 255 0 0
-0.426488 0.356901 -0.014848 255 0 0
-0.063917 -0.600642 -0.392938 255 0 0
-0.315146 0.356901 -0.102432 255 0 0
0.387810 -0.090141 -0.354682 255 0 0
0.426308 -0.407780 0.308715 127 0 127
0.394566 -0.129256 0.385247 153 76 0
0.588709 0.101541 -0.404326 255 0 0
0.588709 -0.099218 -0.092926 255 0 0
