ply
format ascii 1.0
element vertex 1246
property float x
property float y
property float z
property uchar red
property uchar green
property uchar blue
end_header
0.210979 0.141422 -0.285460 204 51 127
0.297906 -0.223270 0.383304 153 0 76
0.523610 0.185457 -0.250873 204 51 127
-0.226836 0.427355 -0.315689 153 0 76
-0.320540 0.326574 -0.288685 153 0 76
0.522716 0.239990 -0.265485 153 0 76
0.321517 0.548583 -0.348172 153 0 76
0.409514 -0.179957 -0.245067 153 0 76
0.102089 -0.156062 0.176134 0 127 127
0.280014 -0.223270 0.002003 153 0 76
0.205105 -0.150113 -0.199147 153 0 76
-0.227572 -0.223270 0.058240 153 0 76
-0.092972 0.489961 -0.378851 204 51 127
0.433557 -0.223270 0.012381 153 0 76
-0.305310 -0.223270 0.194953 153 0 76
0.376662 0.126779 -0.235150 153 0 76
0.512778 -0.223270 0.213628 153 0 76
-0.097123 -0.156062 0.359376 153 0 76
-0.166916 -0.156062 -0.129220 153 0 76
-0.232067 -0.208921 0.445608 153 0 76
-0.590841 -0.148628 -0.201757 204 51 127
-0.478932 0.693376 -0.386969 204 51 127
-0.294589 -0.156062 -0.140563 153 0 76
-0.424550 0.198019 -0.300625 204 51 127
-0.364814 -0.223270 0.303079 153 0 76
-0.401566 -0.223270 -0.053582 153 0 76
-0.501438 0.300145 -0.327990 204 51 127
-0.155267 -0.208921 0.476755 153 0 76
0.065728 -0.223270 0.342653 153 0 76
0.237338 -0.223270 0.544593 153 0 76
0.526580 0.513397 -0.385130 204 51 127
0.597228 0.173336 -0.262481 204 51 127
-0.411850 -0.108613 -0.218464 204 51 127
0.592466 -0.099369 -0.220940 204 51 127
0.275240 -0.158710 0.347576 153 0 76
-0.230302 -0.208921 0.010177 153 0 76
0.535758 -0.208921 0.430697 153 0 76
0.460907 -0.208921 0.173506 153 0 76
-0.379430 0.696769 -0.387878 204 51 127
0.009144 -0.097899 -0.221334 204 51 127
-0.337757 -0.159937 0.061012 0 127 127
-0.541041 -0.208921 0.326463 153 0 76
0.595187 0.675359 -0.428446 204 51 127
0.336852 -0.044228 -0.235716 204 51 127
0.151973 0.427249 -0.315661 153 0 76
-0.527782 0.688789 -0.385740 204 51 127
-0.596451 -0.203285 0.043267 153 0 76
0.450125 -0.193594 0.651049 153 0 76
-0.185673 -0.156062 0.132484 0 127 127
0.569025 -0.156062 0.485918 153 0 76
-0.533882 0.539455 -0.345726 153 0 76
-0.577631 -0.156062 -0.033753 153 0 76
-0.311055 -0.223270 0.441023 153 0 76
0.108170 -0.156062 -0.224389 153 0 76
-0.258239 -0.156062 0.514238 153 0 76
-0.186916 -0.026832 -0.240377 204 51 127
-0.086863 -0.167263 0.143152 0 127 127
-0.448536 -0.208921 0.520693 153 0 76
-0.363227 0.073415 -0.220851 153 0 76
-0.082557 -0.106620 -0.189988 153 0 76
-0.085860 0.070907 -0.220179 153 0 76
0.007011 -0.156062 -0.113129 153 0 76
-0.384621 0.076625 -0.268098 204 51 127
-0.550986 0.043872 -0.259322 204 51 127
-0.232519 -0.208921 -0.050408 153 0 76
-0.148960 -0.208921 0.129764 153 0 76
-0.405317 0.282496 -0.276875 153 0 76
0.335972 -0.130604 -0.166930 204 51 127
-0.286040 0.035586 -0.210715 153 0 76
0.056107 0.154676 -0.242625 153 0 76
0.350467 0.137142 -0.284313 204 51 127
0.366311 -0.173855 0.651049 153 0 76
0.231364 0.038424 -0.257862 204 51 127
0.479122 -0.223270 -0.013422 153 0 76
0.407199 0.099886 -0.227944 153 0 76
-0.529156 0.100848 -0.228202 204 51 127
0.436391 0.610635 -0.364799 153 0 76
-0.515660 0.017302 -0.205816 153 0 76
-0.247552 -0.089304 -0.223637 204 51 127
0.060163 -0.208921 0.257633 153 0 76
0.526911 -0.161035 0.141623 0 127 127
-0.330914 -0.151795 -0.186731 153 0 76
-0.279433 -0.132229 -0.167068 204 51 127
0.374940 -0.165444 0.331973 153 0 76
-0.146482 -0.070844 -0.182197 204 51 127
0.311701 -0.208921 0.314851 153 0 76
-0.597887 -0.202317 -0.170515 153 0 76
0.530542 0.145158 -0.240075 153 0 76
-0.011068 -0.156062 0.098418 0 127 127
0.003927 0.336312 -0.337681 204 51 127
0.378577 0.547662 -0.347926 153 0 76
0.531626 0.103096 -0.275191 204 51 127
0.135565 -0.156895 0.154428 0 127 127
0.393788 0.718129 -0.401189 204 51 127
0.484262 -0.157395 0.176597 0 127 127
0.345676 0.069119 -0.219700 153 0 76
-0.347385 -0.208921 -0.092444 153 0 76
0.446075 -0.198399 -0.245067 153 0 76
-0.460618 -0.157964 0.007622 153 0 76
-0.584956 0.260145 -0.270886 204 51 127
0.151881 0.010971 -0.250506 204 51 127
0.420344 -0.208921 0.231845 153 0 76
-0.050016 -0.011924 -0.197985 153 0 76
-0.467566 0.443940 -0.320133 153 0 76
0.083481 -0.156062 0.398623 153 0 76
0.444870 -0.208921 0.086050 153 0 76
-0.222301 -0.167263 -0.057489 0 127 127
0.234564 -0.167263 0.317674 153 0 76
0.307374 -0.223270 0.518446 153 0 76
0.100802 -0.223270 0.155363 153 0 76
0.519145 -0.223270 0.446218 153 0 76
-0.098560 0.307672 -0.330007 204 51 127
-0.297321 -0.055808 -0.232613 204 51 127
0.344852 -0.223270 -0.109988 153 0 76
0.324507 -0.223270 0.003410 153 0 76
-0.606645 0.644812 -0.420343 204 51 127
0.441927 0.352663 -0.295676 153 0 76
-0.167990 -0.167263 0.111410 0 127 127
0.269453 -0.223270 0.559569 153 0 76
-0.273801 -0.211714 -0.221007 153 0 76
0.525854 -0.156062 0.494589 153 0 76
0.050543 -0.156062 0.234506 0 127 127
0.522294 0.628511 -0.415975 204 51 127
-0.490924 0.264159 -0.271961 153 0 76
0.340813 -0.208921 0.154269 153 0 76
-0.028008 -0.208921 0.346038 153 0 76
0.294055 -0.156062 0.465972 153 0 76
-0.575789 -0.210604 -0.070913 153 0 76
0.005834 0.611108 -0.364926 153 0 76
-0.202211 -0.223270 0.281336 153 0 76
-0.373016 0.309582 -0.330519 204 51 127
0.089215 -0.167263 0.135253 0 127 127
0.105741 -0.223270 -0.104208 153 0 76
0.466596 0.386419 -0.304721 153 0 76
-0.345366 0.658856 -0.424106 204 51 127
-0.559852 -0.223270 0.239193 153 0 76
0.505773 0.658090 -0.423901 204 51 127
-0.115484 -0.223270 0.168908 153 0 76
0.135307 -0.208921 0.258420 153 0 76
-0.475461 -0.208921 0.070748 153 0 76
-0.495924 -0.180936 -0.245067 153 0 76
-0.204306 -0.156062 0.370660 153 0 76
0.410998 -0.156873 0.639884 153 0 76
-0.045789 -0.156062 -0.100968 153 0 76
-0.061395 -0.208921 0.351201 153 0 76
0.244607 -0.156062 -0.179564 153 0 76
0.232996 -0.135735 -0.167865 204 51 127
0.059932 0.581312 -0.403328 204 51 127
-0.484006 -0.223270 0.594625 153 0 76
0.532367 -0.167263 -0.062378 153 0 76
-0.389571 0.340519 -0.338808 204 51 127
0.576979 0.454592 -0.369374 204 51 127
-0.229162 -0.157031 0.067687 0 127 127
0.563649 -0.208854 0.354653 153 0 76
-0.209363 0.090555 -0.225444 153 0 76
0.406310 -0.208921 0.259417 153 0 76
-0.469761 -0.156062 0.039013 153 0 76
-0.175455 -0.208921 0.084679 153 0 76
-0.133704 -0.208921 0.263247 153 0 76
-0.026471 0.367716 -0.346096 204 51 127
0.553922 -0.156062 0.062814 0 127 127
-0.215660 -0.156062 -0.151233 153 0 76
-0.343282 -0.208921 0.374637 153 0 76
-0.358289 -0.107880 -0.218660 204 51 127
0.378658 -0.156062 0.399328 153 0 76
-0.612529 0.456037 -0.357276 204 51 127
0.104903 -0.167263 0.009981 0 127 127
-0.560080 -0.156062 0.427414 153 0 76
0.086632 -0.208921 0.646499 153 0 76
-0.275213 -0.223270 0.470048 153 0 76
0.538144 0.417834 -0.313138 204 51 127
-0.102307 0.441249 -0.365798 204 51 127
-0.185746 0.310859 -0.284474 153 0 76
-0.233908 0.257462 -0.270167 153 0 76
0.374913 -0.223270 0.398877 153 0 76
0.435660 -0.034188 -0.192019 153 0 76
-0.168240 -0.223270 0.566741 153 0 76
0.549331 -0.223270 0.564694 153 0 76
-0.159241 0.201890 -0.255276 153 0 76
0.276517 -0.167263 0.001820 0 127 127
0.513564 -0.208921 -0.188944 153 0 76
-0.543501 -0.208921 0.568311 153 0 76
0.596885 0.643710 -0.420048 204 51 127
-0.190154 0.676747 -0.428722 204 51 127
-0.025985 -0.067386 -0.229510 204 51 127
0.517707 -0.156237 0.268003 0 127 127
-0.276066 0.318200 -0.332828 204 51 127
0.113988 -0.131095 -0.156684 153 0 76
0.436160 -0.156062 -0.150735 153 0 76
-0.335362 0.226555 -0.308271 204 51 127
0.187435 -0.161378 0.341394 153 0 76
0.226141 0.062286 -0.217869 153 0 76
0.320726 0.565670 -0.399137 204 51 127
-0.040775 -0.161662 0.452742 153 0 76
0.053189 0.042280 -0.212509 153 0 76
0.411793 -0.223270 0.187053 153 0 76
0.022957 -0.208921 0.333606 153 0 76
-0.445233 -0.208921 0.570458 153 0 76
0.399534 0.645123 -0.374040 153 0 76
-0.431343 -0.156062 -0.209379 153 0 76
-0.391720 0.026096 -0.208172 153 0 76
0.323965 -0.162553 0.009755 0 127 127
-0.355498 -0.208921 0.631626 153 0 76
0.486996 -0.156062 0.567540 153 0 76
0.547281 -0.223270 0.191563 153 0 76
0.031792 -0.110609 -0.217929 204 51 127
0.220101 -0.156062 0.611024 153 0 76
-0.582623 -0.208462 0.192290 153 0 76
0.330523 0.252539 -0.315234 204 51 127
-0.080023 0.427051 -0.315608 153 0 76
0.453350 0.117253 -0.232598 153 0 76
-0.411917 -0.156062 0.424584 153 0 76
-0.136827 -0.208921 -0.244570 153 0 76
0.210292 -0.208921 0.022305 153 0 76
0.487922 0.269355 -0.319740 204 51 127
-0.313197 0.596334 -0.407354 204 51 127
-0.358741 -0.208921 0.458543 153 0 76
-0.190683 -0.149389 -0.200420 153 0 76
0.329128 -0.208921 0.233247 153 0 76
0.233653 -0.223270 0.156919 153 0 76
0.037198 0.409983 -0.357421 204 51 127
-0.254906 -0.208921 0.566941 153 0 76
0.268913 0.287303 -0.278162 153 0 76
0.424237 0.579184 -0.402758 204 51 127
0.196149 0.173864 -0.247767 153 0 76
0.102686 0.055957 -0.216173 153 0 76
-0.460940 -0.223270 -0.120164 153 0 76
-0.541509 -0.121199 -0.168705 204 51 127
-0.080959 0.016798 -0.205681 153 0 76
0.141796 0.566312 -0.352923 153 0 76
0.069308 -0.208921 0.446892 153 0 76
-0.276661 -0.167263 0.136911 0 127 127
-0.477126 0.663532 -0.425359 204 51 127
-0.609546 -0.156062 0.493017 153 0 76
0.527418 -0.223270 0.100242 153 0 76
-0.236170 -0.156062 -0.169798 153 0 76
-0.375507 0.401957 -0.355270 204 51 127
-0.483461 0.462295 -0.371438 204 51 127
-0.391066 -0.208921 0.339899 153 0 76
0.285601 -0.208921 0.485638 153 0 76
-0.595695 -0.046044 -0.235229 204 51 127
0.385853 -0.156062 0.042501 0 127 127
0.387772 0.324622 -0.288162 153 0 76
0.230954 -0.208921 0.495489 153 0 76
0.521610 -0.156062 0.462460 153 0 76
0.241448 0.347349 -0.294252 153 0 76
0.078251 0.569368 -0.353742 153 0 76
0.324891 -0.208921 0.349378 153 0 76
-0.474210 -0.156062 0.533251 153 0 76
0.539691 0.330954 -0.289859 204 51 127
-0.475050 -0.156062 0.262072 153 0 76
-0.492302 -0.223270 0.551875 153 0 76
-0.047726 0.667698 -0.426475 204 51 127
-0.541844 -0.208755 0.651049 153 0 76
0.254942 -0.208921 0.307015 153 0 76
0.478779 -0.165446 0.084877 0 127 127
0.281773 -0.156062 0.376355 153 0 76
0.521780 -0.156062 0.585574 153 0 76
-0.284631 -0.208921 -0.185213 153 0 76
-0.462258 0.276270 -0.321593 204 51 127
0.129449 -0.223270 -0.025288 153 0 76
0.026991 0.260453 -0.270968 153 0 76
-0.549277 -0.208921 0.484398 153 0 76
0.440897 0.407771 -0.356828 204 51 127
0.573842 0.692937 -0.428070 204 51 127
0.470568 -0.158722 -0.089026 153 0 76
0.194311 -0.058791 -0.231813 204 51 127
0.122384 0.545248 -0.393665 204 51 127
-0.464344 -0.223270 0.389157 153 0 76
-0.308634 -0.163535 0.122615 0 127 127
0.508235 -0.156062 0.624250 153 0 76
-0.187550 0.252514 -0.268841 153 0 76
0.210144 -0.156062 -0.151277 153 0 76
-0.039298 0.438109 -0.318571 153 0 76
-0.287065 -0.223270 0.387560 153 0 76
-0.424910 0.006225 -0.202848 153 0 76
-0.009270 -0.167263 0.292397 0 127 127
-0.435221 -0.156062 0.049500 0 127 127
-0.260568 -0.208921 0.441424 153 0 76
-0.036666 -0.156062 0.406405 76 0 153
0.594496 -0.156062 0.589108 153 0 76
-0.408510 0.087027 -0.270885 204 51 127
0.499494 -0.068021 -0.229340 204 51 127
0.354250 0.424938 -0.315042 153 0 76
-0.553490 -0.208921 0.046697 153 0 76
0.110555 -0.223270 0.300865 153 0 76
0.543557 -0.167263 -0.018642 0 127 127
-0.259841 -0.156062 -0.119311 153 0 76
-0.534806 0.488261 -0.378395 204 51 127
0.170402 -0.208921 0.047818 153 0 76
0.511286 -0.194581 -0.245067 153 0 76
-0.348764 -0.208921 -0.221114 153 0 76
-0.256447 -0.167263 -0.061691 153 0 76
0.182192 0.294716 -0.326535 204 51 127
-0.348427 -0.208921 0.507188 153 0 76
-0.137253 -0.223270 0.089476 153 0 76
-0.406294 -0.167263 0.008124 0 127 127
0.099255 0.279407 -0.276047 153 0 76
0.049569 0.142837 -0.285839 204 51 127
-0.297500 -0.049596 -0.187891 153 0 76
0.077900 0.215148 -0.305215 204 51 127
-0.352490 0.358841 -0.343717 204 51 127
-0.535507 -0.223270 -0.119589 153 0 76
0.212801 0.604632 -0.363191 153 0 76
0.545994 0.370932 -0.300571 204 51 127
0.154562 0.691460 -0.428421 204 51 127
0.067655 0.604205 -0.409462 204 51 127
0.195159 -0.208921 0.603382 153 0 76
-0.395641 -0.156062 0.252960 0 127 127
0.395664 -0.223270 0.021616 153 0 76
-0.600122 -0.200654 0.144527 153 0 76
0.075527 0.251737 -0.268633 153 0 76
-0.058175 -0.156062 -0.138494 153 0 76
0.571524 -0.075097 -0.181058 204 51 127
-0.610532 0.170886 -0.246968 204 51 127
0.363032 -0.223270 0.045432 153 0 76
0.104063 0.479487 -0.376044 204 51 127
-0.416484 0.222783 -0.260874 153 0 76
0.112435 -0.223270 0.211431 153 0 76
0.223583 -0.208921 0.238980 153 0 76
0.108891 0.582666 -0.403691 204 51 127
0.400560 -0.156062 0.353900 153 0 76
-0.284138 -0.208921 0.627330 153 0 76
-0.043863 -0.201164 -0.245067 153 0 76
-0.553100 -0.156062 0.204749 153 0 76
0.035410 0.193796 -0.299494 204 51 127
-0.077954 -0.161662 0.544979 76 0 153
-0.387686 -0.059938 -0.185120 204 51 127
-0.203042 0.037149 -0.211134 153 0 76
0.105483 -0.208921 -0.238310 153 0 76
0.356947 0.605153 -0.409717 204 51 127
0.209535 0.712102 -0.414621 204 51 127
-0.434419 0.335373 -0.291043 153 0 76
0.343442 0.318249 -0.286455 153 0 76
0.200590 0.038110 -0.257778 204 51 127
-0.344979 -0.060627 -0.184935 204 51 127
0.041219 -0.156194 0.451429 153 0 76
-0.157166 -0.156062 0.398045 153 0 76
0.597228 0.390624 -0.320618 204 51 127
-0.371407 0.123134 -0.280560 204 51 127
-0.009339 -0.208921 0.042389 153 0 76
0.383549 0.646940 -0.420913 204 51 127
0.239234 0.226451 -0.308244 204 51 127
0.267598 -0.156062 0.397765 153 0 76
-0.181338 -0.156062 0.421240 153 0 76
0.597228 0.044981 -0.223334 204 51 127
0.175252 0.127804 -0.235425 153 0 76
0.125451 0.336945 -0.291464 153 0 76
0.417370 -0.223270 -0.183704 153 0 76
0.022963 -0.208921 0.554805 153 0 76
-0.432159 -0.156062 0.496320 153 0 76
-0.097867 -0.075373 -0.180984 204 51 127
0.118119 -0.017849 -0.196397 153 0 76
-0.543025 -0.208921 0.297319 153 0 76
0.182211 -0.208921 0.192146 153 0 76
0.472099 -0.020025 -0.242200 204 51 127
-0.526990 -0.208921 0.257221 153 0 76
0.234244 -0.223270 0.376874 153 0 76
-0.008670 -0.075050 -0.181070 204 51 127
-0.370912 -0.156062 -0.224453 153 0 76
0.246345 -0.156062 0.455896 153 0 76
0.389831 -0.223270 0.100473 153 0 76
-0.137056 -0.156062 0.225300 0 127 127
0.075669 -0.208921 0.422314 153 0 76
-0.258489 -0.019441 -0.195971 153 0 76
-0.388108 -0.032970 -0.192346 153 0 76
0.217713 -0.223270 -0.142155 153 0 76
-0.322280 -0.103557 -0.219818 204 51 127
0.039464 0.570705 -0.354100 153 0 76
0.433524 -0.223270 -0.104553 153 0 76
-0.081437 0.203226 -0.302021 204 51 127
0.396331 -0.208921 -0.132449 153 0 76
0.287462 -0.223270 0.057067 153 0 76
-0.487405 -0.148408 -0.202145 204 51 127
-0.107510 -0.208921 0.477728 153 0 76
-0.201082 -0.208921 0.034428 153 0 76
0.153263 -0.208921 0.384700 153 0 76
-0.007111 -0.223270 0.615481 153 0 76
-0.289202 -0.208921 -0.077800 153 0 76
-0.208511 -0.167263 0.310874 153 0 76
0.002189 -0.208921 -0.193323 153 0 76
0.094616 0.338814 -0.338351 204 51 127
0.461743 0.265644 -0.272359 153 0 76
-0.284523 -0.156062 0.230279 0 127 127
-0.422433 -0.156062 0.602443 153 0 76
-0.123258 -0.223270 0.438220 153 0 76
-0.233612 -0.208921 0.630161 153 0 76
-0.233711 -0.223270 0.469940 153 0 76
0.519594 -0.208921 -0.127759 153 0 76
0.597228 0.546482 -0.368626 204 51 127
-0.461690 -0.156062 0.406819 153 0 76
0.204370 0.088552 -0.271294 204 51 127
0.361226 -0.132725 -0.212003 204 51 127
0.237756 -0.158753 -0.025824 0 127 127
0.133202 -0.156062 0.488145 153 0 76
-0.518745 0.230920 -0.263055 153 0 76
-0.075614 -0.079550 -0.226251 204 51 127
0.202905 -0.167263 -0.004093 0 127 127
-0.057102 0.375903 -0.348289 204 51 127
-0.370043 -0.208921 0.045731 153 0 76
-0.293030 0.077464 -0.268323 204 51 127
-0.055159 -0.208921 -0.142514 153 0 76
-0.507450 -0.156062 0.250440 153 0 76
-0.452751 0.673863 -0.428127 204 51 127
-0.396582 -0.208921 -0.074168 153 0 76
0.335198 0.024366 -0.207709 153 0 76
0.122117 0.656539 -0.423485 204 51 127
0.349525 0.647901 -0.421171 204 51 127
-0.062645 -0.223270 -0.197518 153 0 76
0.424954 -0.208921 0.471126 153 0 76
0.486673 -0.156062 0.464255 153 0 76
-0.554645 -0.087236 -0.224191 204 51 127
0.489497 0.187641 -0.251458 153 0 76
0.241715 -0.156062 0.585580 153 0 76
-0.549417 -0.136728 -0.210930 204 51 127
0.147393 0.371400 -0.300696 153 0 76
-0.288467 -0.165705 0.331367 153 0 76
0.416010 -0.166025 0.217214 0 127 127
-0.182895 0.571892 -0.354418 153 0 76
0.586090 0.176609 -0.294888 204 51 127
-0.361845 -0.159764 0.005070 0 127 127
-0.612529 0.659954 -0.401331 204 51 127
0.355472 0.632181 -0.370572 153 0 76
0.144035 0.703661 -0.389725 204 51 127
-0.194714 -0.223270 0.125698 153 0 76
0.585686 0.305948 -0.283158 204 51 127
0.399755 -0.126414 -0.213694 204 51 127
-0.140419 0.046422 -0.213619 153 0 76
0.167858 -0.223270 0.441301 153 0 76
-0.613466 -0.167156 0.135230 153 0 76
0.136913 0.360259 -0.344097 204 51 127
-0.589741 -0.156347 -0.230807 153 0 76
0.014033 -0.162974 -0.241628 153 0 76
0.112372 -0.223270 0.346755 153 0 76
0.491671 -0.208921 0.359947 153 0 76
-0.094381 0.318811 -0.286605 153 0 76
-0.514657 -0.156062 -0.130260 153 0 76
0.449188 -0.167263 0.253087 153 0 76
-0.028486 0.073069 -0.220759 153 0 76
-0.603667 0.696628 -0.426816 204 51 127
-0.613466 -0.167343 0.108342 153 0 76
-0.071999 -0.165892 0.215212 0 127 127
-0.456741 -0.167263 0.302373 153 0 76
-0.124303 -0.101715 -0.187051 255 0 0
-0.519589 -0.223270 -0.081766 153 0 76
0.406722 0.192739 -0.299210 204 51 127
0.172194 0.291332 -0.279242 153 0 76
-0.430941 -0.156062 0.125153 0 127 127
-0.255248 -0.095599 -0.175564 204 51 127
0.424116 -0.208921 0.378236 153 0 76
0.581942 -0.156218 -0.230132 153 0 76
0.310320 -0.208921 0.270463 153 0 76
0.144479 0.223807 -0.307535 204 51 127
0.585676 -0.156062 -0.076408 153 0 76
-0.120007 -0.208921 0.562732 153 0 76
0.589395 -0.195671 0.553160 153 0 76
-0.270145 -0.167263 0.043872 0 127 127
0.172952 -0.156062 0.453726 153 0 76
-0.338311 -0.223270 0.423567 153 0 76
-0.612529 0.552060 -0.389541 204 51 127
-0.597404 -0.202643 -0.218614 153 0 76
0.172466 0.180131 -0.249446 153 0 76
0.119984 -0.158537 0.643469 153 0 76
-0.564687 0.526199 -0.342174 204 51 127
-0.511263 -0.156062 -0.159240 153 0 76
0.539849 -0.069923 -0.182444 204 51 127
-0.575911 -0.210451 -0.030478 153 0 76
0.306081 0.030425 -0.209332 153 0 76
-0.275946 0.353469 -0.295892 153 0 76
0.279716 0.704317 -0.389901 204 51 127
-0.265628 0.274827 -0.321206 204 51 127
-0.471822 -0.156062 0.579346 153 0 76
0.037098 -0.161662 0.481625 76 0 153
-0.518652 -0.047983 -0.234709 204 51 127
0.578448 0.593184 -0.360123 204 51 127
0.220893 -0.156062 0.474001 153 0 76
-0.284781 -0.175226 -0.245067 153 0 76
-0.537471 -0.223270 0.549373 153 0 76
0.477716 -0.156062 -0.155444 153 0 76
-0.056842 0.110950 -0.230909 153 0 76
0.321286 0.495694 -0.334001 153 0 76
-0.461266 0.224713 -0.261391 153 0 76
0.497323 -0.208921 0.064426 153 0 76
0.389186 -0.156062 -0.153547 153 0 76
-0.199171 -0.223270 0.617586 153 0 76
-0.165466 0.668661 -0.426733 204 51 127
0.156990 -0.157871 -0.235484 153 0 76
0.289865 0.655425 -0.376800 153 0 76
0.456293 -0.156062 0.018824 0 127 127
0.303187 0.210161 -0.303879 204 51 127
0.389222 -0.058155 -0.185597 204 51 127
-0.198531 0.260680 -0.317415 204 51 127
-0.095863 -0.167263 0.249855 0 127 127
-0.177199 -0.160280 0.073145 0 127 127
-0.429086 -0.223270 0.231413 153 0 76
0.182402 0.342628 -0.339373 204 51 127
0.130401 -0.208921 0.421830 153 0 76
-0.345766 -0.155978 -0.046270 0 127 127
-0.294009 -0.223270 0.118158 153 0 76
-0.400301 -0.156062 0.224054 0 127 127
-0.419119 -0.130440 -0.166916 204 51 127
0.078000 0.328696 -0.289254 153 0 76
-0.082384 -0.223270 0.120163 153 0 76
-0.588344 -0.156062 0.389086 153 0 76
-0.163800 0.324902 -0.334623 204 51 127
-0.442886 0.614979 -0.365963 153 0 76
0.265630 -0.156062 0.593619 153 0 76
-0.235010 -0.208921 0.522101 153 0 76
-0.553573 -0.156062 0.156995 153 0 76
0.469823 0.056195 -0.262624 204 51 127
0.414893 -0.223270 0.530089 153 0 76
0.240575 0.563077 -0.398442 204 51 127
0.432931 -0.131217 -0.166982 204 51 127
0.216051 -0.208921 -0.047847 153 0 76
-0.315649 -0.223270 -0.208969 153 0 76
-0.212072 0.513359 -0.385120 204 51 127
0.224314 -0.208921 -0.104471 153 0 76
0.415292 0.051617 -0.261397 204 51 127
-0.098449 -0.223270 -0.074364 153 0 76
-0.121677 0.586104 -0.358226 153 0 76
0.025025 -0.223270 -0.049640 153 0 76
0.289655 -0.156062 0.053632 0 127 127
0.204609 -0.167263 0.039217 0 127 127
0.434779 -0.156062 0.409194 153 0 76
-0.449111 -0.158532 -0.236703 153 0 76
0.544577 0.351970 -0.341876 204 51 127
0.277280 0.192043 -0.252638 153 0 76
0.251910 -0.223270 0.583650 153 0 76
0.097710 -0.167263 0.245571 0 127 127
-0.212278 0.350743 -0.341548 204 51 127
0.047193 -0.156062 0.619539 153 0 76
-0.132096 -0.223270 0.393632 153 0 76
-0.213435 -0.223270 0.094647 153 0 76
0.399054 -0.208921 0.614904 153 0 76
-0.472145 0.040065 -0.258302 204 51 127
0.593904 -0.187771 0.629097 153 0 76
0.172579 -0.208921 -0.005580 153 0 76
0.014371 -0.223270 0.199479 153 0 76
-0.056123 -0.208921 0.225687 153 0 76
-0.026281 -0.223270 0.257666 153 0 76
0.431948 0.624135 -0.414803 204 51 127
0.547846 -0.156062 -0.138788 153 0 76
-0.385536 -0.208921 0.531886 153 0 76
0.044279 -0.223270 0.596260 153 0 76
-0.231620 0.531504 -0.389982 204 51 127
-0.030234 0.653840 -0.376376 153 0 76
-0.442030 0.624991 -0.415032 204 51 127
0.130110 -0.223270 0.473238 153 0 76
0.305794 -0.223270 -0.109260 153 0 76
-0.428652 -0.208921 0.182867 153 0 76
0.321914 0.144997 -0.240032 153 0 76
0.462391 -0.223270 0.042174 153 0 76
0.145199 -0.161756 0.340518 153 0 76
-0.156162 -0.130034 -0.212724 204 51 127
0.569915 -0.166327 0.150635 0 127 127
-0.125049 -0.208921 0.601824 153 0 76
-0.245612 0.576536 -0.355662 153 0 76
0.078849 -0.223270 0.137166 153 0 76
0.593738 -0.156062 0.444783 153 0 76
0.046903 -0.208921 0.375766 153 0 76
0.571738 0.527653 -0.388950 204 51 127
0.478305 0.352169 -0.341930 204 51 127
0.013336 0.271137 -0.320217 204 51 127
-0.066632 -0.223270 0.561813 153 0 76
-0.029243 -0.167263 0.309400 153 0 76
0.183063 -0.167263 0.061207 0 127 127
-0.373626 -0.189909 -0.245067 153 0 76
0.249530 0.579107 -0.356351 153 0 76
-0.065578 -0.156249 0.637293 153 0 76
0.064343 -0.223270 0.299828 153 0 76
-0.125589 -0.156437 -0.231280 153 0 76
-0.485420 -0.208921 -0.186066 153 0 76
-0.589874 0.210911 -0.304080 204 51 127
0.053494 -0.208921 0.180444 153 0 76
-0.585696 -0.156062 -0.153560 153 0 76
0.306820 -0.156062 0.589583 153 0 76
-0.376406 -0.167263 0.196960 0 127 127
-0.409102 -0.208921 0.000049 153 0 76
0.327948 0.095009 -0.273024 204 51 127
0.350472 0.205302 -0.302577 204 51 127
0.228542 -0.223270 0.572819 153 0 76
-0.248911 0.354284 -0.342496 204 51 127
0.157270 -0.156062 0.533078 153 0 76
0.026176 -0.156062 -0.218269 153 0 76
0.284494 0.064741 -0.264914 204 51 127
-0.328153 0.228911 -0.262516 153 0 76
0.431739 0.128273 -0.235550 153 0 76
0.108746 -0.167263 0.053356 0 127 127
-0.002817 -0.019720 -0.242282 204 51 127
0.293425 -0.208921 0.444924 153 0 76
-0.142670 -0.223270 -0.121965 153 0 76
0.037203 -0.157785 0.550160 153 76 0
0.075273 0.213735 -0.258450 153 0 76
0.343079 -0.223270 0.603308 153 0 76
0.472471 0.706290 -0.420904 204 51 127
0.595909 -0.180837 0.495131 153 0 76
0.233925 -0.223270 0.132108 153 0 76
0.325121 0.046044 -0.259904 204 51 127
0.110896 -0.208921 0.560609 153 0 76
-0.188460 -0.156062 0.047253 0 127 127
-0.310895 -0.167263 0.001269 0 127 127
0.255434 -0.223270 0.232913 153 0 76
0.543649 -0.156062 -0.100455 153 0 76
-0.583457 -0.172072 0.651042 153 0 76
-0.251118 0.499677 -0.335068 153 0 76
-0.158589 0.093282 -0.226175 153 0 76
0.216623 -0.156062 -0.222151 153 0 76
-0.589632 -0.156062 0.311344 153 0 76
-0.489248 0.063146 -0.264486 204 51 127
-0.003866 -0.156062 0.364493 153 0 76
0.518072 -0.223270 0.486622 153 0 76
-0.010263 -0.223270 -0.034800 153 0 76
0.593195 -0.156062 0.292269 153 0 76
0.562628 -0.167263 0.030294 0 127 127
-0.602195 -0.156062 -0.038007 153 0 76
0.189049 -0.169696 -0.244705 153 0 76
-0.612529 0.086310 -0.239468 204 51 127
-0.423304 0.275332 -0.321341 204 51 127
0.504520 -0.223270 0.527784 153 0 76
0.040572 -0.156062 0.376524 153 0 76
-0.466328 -0.208921 0.436174 153 0 76
0.034274 -0.165197 0.283032 0 127 127
-0.329999 0.569439 -0.400147 204 51 127
0.453546 -0.094404 -0.175885 204 51 127
-0.066615 -0.123714 -0.201490 255 0 0
0.533786 -0.208921 0.066483 153 0 76
-0.424993 -0.208921 -0.104781 153 0 76
0.078203 -0.167263 -0.030109 0 127 127
-0.254623 0.153171 -0.288608 204 51 127
0.103305 -0.208921 0.033814 153 0 76
-0.361725 0.586400 -0.404692 204 51 127
-0.377204 0.529678 -0.343107 153 0 76
-0.612529 0.504218 -0.381600 204 51 127
0.252310 -0.036560 -0.191384 153 0 76
-0.279492 0.112930 -0.277826 204 51 127
-0.049639 -0.208921 0.494312 153 0 76
0.095718 -0.154566 -0.201490 255 0 0
0.421414 -0.156062 -0.117436 153 0 76
0.405864 -0.196455 0.651049 153 0 76
-0.018678 -0.208921 -0.146206 153 0 76
-0.564901 -0.156062 0.612840 153 0 76
-0.218011 -0.156062 0.511534 153 0 76
0.377297 0.031705 -0.209675 153 0 76
-0.506467 -0.208921 0.155338 153 0 76
0.292832 -0.095318 -0.175639 204 51 127
0.502115 -0.165535 0.007732 0 127 127
-0.285592 -0.156062 0.573686 153 0 76
0.318895 -0.208921 0.080412 153 0 76
-0.149110 0.028053 -0.255083 204 51 127
0.069177 0.262822 -0.317989 204 51 127
0.597228 0.342246 -0.314232 204 51 127
0.211409 -0.208921 -0.020698 153 0 76
-0.412077 0.717446 -0.393419 204 51 127
-0.194510 -0.156062 0.551891 153 0 76
0.028500 -0.156062 0.406588 153 0 76
-0.356467 0.478716 -0.375838 204 51 127
0.311001 -0.167263 0.063103 0 127 127
-0.340790 -0.223270 0.280153 153 0 76
0.022604 -0.156062 -0.150417 153 0 76
-0.161814 -0.156062 -0.043362 0 127 127
-0.047891 -0.132610 -0.156684 153 0 76
0.485132 0.307663 -0.330004 204 51 127
-0.002328 0.401075 -0.355034 204 51 127
0.244623 0.526900 -0.388748 204 51 127
-0.548820 0.631680 -0.416824 204 51 127
-0.113398 0.012745 -0.250981 204 51 127
-0.400404 0.617496 -0.413024 204 51 127
0.145568 -0.223270 -0.166989 153 0 76
0.340219 -0.208921 0.566075 153 0 76
-0.270122 0.678151 -0.382890 204 51 127
0.384579 0.227354 -0.308486 204 51 127
-0.015037 -0.167263 0.045806 0 127 127
-0.473745 0.573486 -0.354845 153 0 76
0.461516 0.542865 -0.393026 204 51 127
0.076278 0.084682 -0.270257 204 51 127
0.492035 -0.208921 0.250597 153 0 76
-0.454084 0.416390 -0.359138 204 51 127
0.124743 0.487235 -0.331734 153 0 76
-0.440827 -0.030451 -0.193020 153 0 76
0.371869 -0.166783 -0.243789 153 0 76
-0.332365 -0.156062 0.088521 0 127 127
-0.509764 -0.156062 0.487051 153 0 76
-0.020520 -0.107059 -0.195268 255 0 0
0.372826 -0.223270 0.368093 153 0 76
-0.345831 -0.023321 -0.194931 153 0 76
0.506434 0.329207 -0.289391 153 0 76
0.568283 -0.208400 -0.057428 153 0 76
0.263111 -0.223270 0.604894 153 0 76
-0.507407 0.470495 -0.327248 153 0 76
0.268770 0.534655 -0.344440 153 0 76
-0.328674 -0.156062 0.164968 0 127 127
-0.260302 -0.156062 0.447656 153 0 76
-0.021739 0.461077 -0.324725 153 0 76
0.530179 -0.162678 0.338382 153 0 76
-0.136765 0.300444 -0.281684 153 0 76
-0.107593 -0.208921 -0.205450 153 0 76
0.201314 -0.156062 0.226597 0 127 127
-0.502981 0.036978 -0.211088 153 0 76
0.377840 0.408341 -0.310594 153 0 76
0.371042 -0.156062 0.232773 0 127 127
0.582643 -0.051411 -0.233791 204 51 127
-0.184271 0.058106 -0.263136 204 51 127
0.271763 0.565957 -0.352827 153 0 76
-0.229788 -0.208921 -0.170569 153 0 76
0.473123 -0.066004 -0.229881 204 51 127
0.597228 0.219473 -0.275938 204 51 127
0.068069 -0.167263 0.212966 0 127 127
0.451353 -0.208921 0.311174 153 0 76
0.284635 -0.223270 -0.148412 153 0 76
0.536114 0.590995 -0.359536 204 51 127
0.029045 0.207924 -0.256893 153 0 76
-0.068394 -0.223270 -0.054059 153 0 76
-0.397830 -0.187114 0.651049 153 0 76
0.030419 -0.166433 0.115031 0 127 127
-0.120948 -0.223270 0.309747 153 0 76
-0.495516 -0.208921 0.458627 153 0 76
0.567892 0.554583 -0.396166 204 51 127
-0.333399 0.141980 -0.285610 204 51 127
0.488379 -0.019470 -0.195963 153 0 76
0.148487 -0.223270 0.326769 153 0 76
0.563619 -0.208856 0.476764 153 0 76
0.020000 -0.156062 0.225692 0 127 127
0.127208 -0.126068 -0.201490 255 0 0
-0.519297 -0.208921 -0.195193 153 0 76
-0.217306 -0.208565 0.651049 153 0 76
0.570451 -0.207943 0.114484 153 0 76
-0.441881 -0.174649 0.651049 153 0 76
-0.088101 -0.003503 -0.246628 204 51 127
0.076526 -0.208921 0.584376 153 0 76
0.430858 -0.167263 0.071601 0 127 127
-0.200598 -0.223270 0.399158 153 0 76
-0.463199 -0.156062 0.496147 153 0 76
0.304520 0.287290 -0.324545 204 51 127
0.597228 0.488945 -0.344816 204 51 127
-0.504877 -0.208921 0.072358 153 0 76
0.172860 -0.208921 0.301391 153 0 76
0.114271 0.623839 -0.414723 204 51 127
-0.037949 -0.161662 0.510600 153 76 0
-0.143272 -0.223270 0.176824 153 0 76
0.214992 -0.208921 0.161187 153 0 76
-0.612529 0.062461 -0.237602 204 51 127
-0.282409 0.712394 -0.414185 204 51 127
-0.229041 0.044792 -0.213182 153 0 76
0.596290 -0.169889 0.466586 153 0 76
0.315467 0.177790 -0.295205 204 51 127
0.538534 -0.208921 0.462611 153 0 76
0.477457 0.109483 -0.230516 153 0 76
-0.010649 0.508752 -0.337500 153 0 76
-0.290450 0.233749 -0.310199 204 51 127
-0.538260 -0.208921 0.524590 153 0 76
0.186858 -0.156062 0.251640 0 127 127
-0.437591 0.367374 -0.299617 153 0 76
0.300290 0.295943 -0.280478 153 0 76
0.536772 -0.156062 0.384169 153 0 76
-0.471942 -0.156062 -0.120097 153 0 76
0.499304 -0.223270 0.020049 153 0 76
-0.586782 -0.156062 0.019387 153 0 76
-0.206200 0.584404 -0.404157 204 51 127
-0.326854 -0.167263 -0.025697 0 127 127
0.190632 -0.167263 -0.064940 153 0 76
0.039843 -0.208921 -0.240587 153 0 76
0.006908 0.642212 -0.373260 153 0 76
-0.264294 -0.156062 0.091938 0 127 127
-0.253498 -0.156062 0.475413 153 0 76
-0.163153 0.540347 -0.345965 153 0 76
-0.506914 -0.029247 -0.193343 153 0 76
0.031718 -0.167045 0.017301 0 127 127
-0.297022 0.346137 -0.340313 204 51 127
-0.117317 -0.223270 0.515036 153 0 76
0.227084 -0.089637 -0.223548 204 51 127
0.175807 -0.208921 0.254762 153 0 76
-0.146552 -0.223270 0.047153 153 0 76
0.421325 0.468927 -0.326828 153 0 76
-0.529094 -0.081152 -0.179435 204 51 127
-0.592814 -0.020395 -0.195715 204 51 127
0.547143 -0.082289 -0.225517 204 51 127
-0.332843 -0.223270 0.042595 153 0 76
-0.190273 -0.223270 0.472746 153 0 76
-0.147938 0.662459 -0.378685 153 0 76
-0.212765 -0.132654 -0.212022 204 51 127
-0.189229 -0.223270 -0.062541 153 0 76
0.426946 -0.156062 -0.226641 153 0 76
0.010398 0.714505 -0.414715 0 0 255
0.568944 0.697201 -0.387994 204 51 127
-0.394902 0.608226 -0.364153 153 0 76
0.072126 0.480423 -0.329909 153 0 76
-0.597664 0.059244 -0.263441 204 51 127
-0.296430 -0.094647 -0.175819 204 51 127
0.519811 -0.167034 0.314534 0 127 127
0.322289 0.377741 -0.348782 204 51 127
0.160627 -0.161716 0.136006 0 127 127
0.579530 -0.009917 -0.244909 204 51 127
0.595880 0.717350 -0.403893 204 51 127
0.139407 0.397239 -0.307620 153 0 76
-0.571121 -0.208921 0.451494 153 0 76
0.478127 -0.129681 -0.166852 204 51 127
-0.465205 0.059568 -0.217141 153 0 76
-0.085167 -0.190356 -0.245067 153 0 76
-0.004827 -0.115663 -0.157860 255 0 0
-0.062856 0.058674 -0.263288 204 51 127
-0.312890 0.118909 -0.233041 153 0 76
-0.044114 0.165710 -0.245582 153 0 76
0.425267 -0.155978 0.105268 0 127 127
-0.466694 0.148623 -0.241003 153 0 76
0.163193 0.054680 -0.262218 204 51 127
-0.258607 -0.208921 0.286447 153 0 76
0.377707 0.283624 -0.277177 153 0 76
0.201152 0.500722 -0.335348 153 0 76
-0.493803 -0.156062 0.119384 153 0 76
0.546007 -0.167263 0.231834 153 0 76
0.240641 -0.223270 0.324673 153 0 76
0.565885 0.426221 -0.315385 204 51 127
-0.159163 0.377846 -0.302423 153 0 76
0.213458 0.583783 -0.403991 204 51 127
-0.418034 0.244044 -0.312958 204 51 127
0.426880 -0.073959 -0.227749 204 51 127
0.322473 -0.167263 -0.069032 153 0 76
0.243521 -0.208921 0.421526 153 0 76
0.088621 0.395483 -0.353535 204 51 127
-0.041072 -0.208921 -0.108515 153 0 76
-0.436734 -0.156062 0.396664 153 0 76
0.297875 -0.208921 0.535428 153 0 76
0.552404 0.712747 -0.413657 204 51 127
-0.270835 -0.162122 -0.082225 153 0 76
-0.319080 -0.208921 -0.055460 153 0 76
-0.111668 -0.223270 -0.171755 153 0 76
-0.610802 -0.186237 0.298700 153 0 76
-0.147604 -0.167263 0.040541 0 127 127
-0.046842 0.579363 -0.402806 204 51 127
-0.465742 0.494860 -0.333777 153 0 76
-0.215740 -0.208921 -0.077656 153 0 76
-0.106784 -0.208921 0.350704 153 0 76
0.151338 -0.223270 -0.055827 153 0 76
0.101177 -0.208921 0.174246 153 0 76
0.081934 -0.166144 0.015789 0 127 127
-0.375048 -0.223270 0.198284 153 0 76
0.597228 -0.011854 -0.221428 204 51 127
0.244598 -0.223270 -0.009782 153 0 76
0.063469 -0.156062 0.584247 153 0 76
-0.458667 -0.167263 -0.037721 153 0 76
0.152989 0.200398 -0.254876 153 0 76
-0.237551 0.344721 -0.293548 153 0 76
-0.423406 0.087694 -0.224677 153 0 76
0.348016 -0.156062 0.096633 0 127 127
-0.324486 -0.156062 0.394015 153 0 76
0.272690 -0.017690 -0.242826 204 51 127
-0.146151 -0.223270 0.002012 153 0 76
0.035457 0.629533 -0.416249 204 51 127
0.102770 -0.156062 0.558715 153 0 76
-0.349442 -0.208921 0.122128 153 0 76
-0.564629 -0.156062 0.474746 153 0 76
-0.080805 0.094525 -0.272894 204 51 127
0.044022 -0.183461 0.651049 153 0 76
0.283480 -0.124543 -0.167809 204 51 127
0.594833 -0.156062 0.048321 153 0 76
-0.322310 0.181497 -0.249812 153 0 76
-0.424746 -0.223270 -0.035705 153 0 76
-0.251025 -0.167263 0.068991 0 127 127
-0.084784 0.168790 -0.292793 204 51 127
0.325605 -0.156062 0.255366 0 127 127
-0.259606 -0.208921 -0.151684 153 0 76
0.403969 -0.223270 0.212877 153 0 76
0.101759 0.029574 -0.255490 204 51 127
-0.208824 -0.162627 0.009879 0 127 127
-0.058534 -0.208921 0.055898 153 0 76
-0.067542 0.526578 -0.342276 153 0 76
-0.316733 -0.208921 0.641032 153 0 76
-0.432881 -0.208921 -0.139616 153 0 76
-0.143867 0.418340 -0.359660 204 51 127
0.535292 0.400758 -0.354949 204 51 127
0.241775 0.423812 -0.314740 153 0 76
0.385148 -0.124554 -0.167806 204 51 127
-0.551795 0.417942 -0.313167 204 51 127
-0.407251 -0.208921 0.489369 153 0 76
0.092612 0.292539 -0.325952 204 51 127
-0.519781 -0.208921 0.336720 153 0 76
0.080010 -0.208921 -0.111491 153 0 76
0.000452 -0.223270 -0.093767 153 0 76
-0.364182 0.052337 -0.261590 204 51 127
-0.011720 -0.208921 0.472638 153 0 76
-0.261700 0.149916 -0.241350 153 0 76
0.179126 -0.089368 -0.177234 204 51 127
0.460916 -0.208921 0.340949 153 0 76
-0.274549 0.558273 -0.397155 204 51 127
-0.139283 0.471170 -0.373816 204 51 127
-0.477316 -0.208921 -0.130530 153 0 76
0.346310 -0.223270 0.106451 153 0 76
-0.481499 0.096151 -0.273330 204 51 127
-0.491124 -0.208921 -0.218288 153 0 76
-0.329647 -0.167263 0.304632 153 0 76
0.043260 -0.026160 -0.240557 204 51 127
-0.579448 0.577398 -0.402280 204 51 127
0.482054 -0.208921 0.593039 153 0 76
0.047678 -0.120796 -0.156903 255 0 0
-0.576292 -0.204236 -0.245067 153 0 76
0.498075 -0.223270 0.170373 153 0 76
-0.494848 0.501803 -0.335638 153 0 76
-0.596914 0.369776 -0.346648 204 51 127
0.326621 0.462205 -0.325027 153 0 76
0.108983 -0.167263 -0.071649 153 0 76
-0.563261 -0.208921 -0.200334 153 0 76
0.497148 0.564828 -0.352525 204 51 127
-0.334335 0.555202 -0.349946 153 0 76
-0.570909 -0.216748 0.331198 153 0 76
0.357053 0.110693 -0.230840 153 0 76
0.332455 -0.177043 0.651049 153 0 76
-0.438421 -0.156062 0.258684 0 127 127
-0.611461 -0.184251 -0.000834 153 0 76
0.552461 -0.156062 0.627883 153 0 76
-0.462263 -0.223270 0.025170 153 0 76
-0.226779 -0.056530 -0.186033 204 51 127
0.596301 -0.172712 -0.192079 153 0 76
0.188983 0.269791 -0.273470 153 0 76
0.481107 -0.223270 -0.075520 153 0 76
-0.081367 -0.223270 0.596517 153 0 76
-0.612529 0.206913 -0.273796 204 51 127
0.168073 -0.208921 0.479140 153 0 76
-0.037024 -0.166766 -0.031085 0 127 127
-0.047165 0.340717 -0.292475 153 0 76
0.054995 -0.208921 -0.142706 153 0 76
-0.374213 -0.156062 0.485919 153 0 76
-0.139529 0.501185 -0.335472 153 0 76
-0.014719 -0.208921 0.432686 153 0 76
-0.546387 -0.002128 -0.246996 204 51 127
-0.187303 -0.223270 0.225057 153 0 76
-0.386052 0.399243 -0.308157 153 0 76
-0.551152 0.597468 -0.407657 204 51 127
-0.418129 0.495931 -0.334064 153 0 76
-0.529000 -0.208921 0.604364 153 0 76
-0.146953 -0.187732 -0.245067 153 0 76
-0.298045 -0.156062 -0.046098 0 127 127
0.140714 -0.223270 -0.114513 153 0 76
0.421146 -0.208921 0.026308 153 0 76
0.304461 0.446444 -0.320804 153 0 76
-0.249576 0.249210 -0.314342 204 51 127
0.020921 0.369601 -0.346601 204 51 127
-0.230796 -0.156062 0.028699 0 127 127
-0.354294 -0.156062 0.377572 153 0 76
-0.202690 -0.122510 -0.168354 204 51 127
-0.023828 0.704916 -0.417655 0 0 255
-0.211371 -0.208921 -0.035174 153 0 76
-0.541779 0.246067 -0.267113 204 51 127
0.302797 -0.208921 0.098094 153 0 76
-0.517752 -0.223270 -0.156563 153 0 76
-0.042787 -0.208921 -0.010407 153 0 76
-0.224804 -0.156062 0.403988 153 0 76
-0.172088 -0.156062 0.516706 153 0 76
0.124437 -0.156062 0.611023 153 0 76
0.196328 -0.223270 0.366123 153 0 76
-0.211880 -0.223270 -0.001574 153 0 76
-0.387199 -0.208921 0.214407 153 0 76
0.298946 -0.223270 0.466316 153 0 76
-0.560583 0.294877 -0.280192 204 51 127
-0.117735 -0.156062 -0.126423 153 0 76
-0.559153 0.549893 -0.394910 204 51 127
0.107134 -0.208921 0.319038 153 0 76
0.227103 -0.156062 0.550843 153 0 76
-0.603971 0.237657 -0.264860 204 51 127
-0.516321 -0.156062 -0.211830 153 0 76
-0.255530 -0.208921 -0.079219 153 0 76
-0.134173 -0.208921 0.638620 153 0 76
0.134506 -0.156062 -0.156534 153 0 76
-0.591929 0.264674 -0.318485 204 51 127
-0.344662 0.145017 -0.240037 153 0 76
0.266600 -0.208921 0.443599 153 0 76
0.125378 -0.025526 -0.240726 204 51 127
0.344235 -0.156062 0.493427 153 0 76
-0.554826 0.499936 -0.381524 204 51 127
-0.173134 0.103253 -0.275233 204 51 127
-0.403222 0.579643 -0.402881 204 51 127
0.464101 -0.156062 0.527652 153 0 76
-0.491986 -0.208921 0.416066 153 0 76
-0.167395 -0.141833 -0.170705 204 51 127
-0.123650 -0.110343 -0.160386 255 0 0
-0.048787 0.142464 -0.285740 204 51 127
0.133263 -0.208921 0.052851 153 0 76
0.080850 -0.223270 0.402853 153 0 76
0.277250 0.559882 -0.397586 204 51 127
-0.512198 -0.156062 0.414678 153 0 76
-0.225783 -0.223270 0.407606 153 0 76
-0.267294 -0.223270 0.036944 153 0 76
0.315971 -0.006086 -0.245936 204 51 127
-0.311185 0.423279 -0.314597 153 0 76
-0.430024 0.670835 -0.380930 204 51 127
-0.150673 -0.223270 -0.151302 153 0 76
-0.456300 -0.223270 0.184729 153 0 76
-0.352802 -0.167263 0.129742 0 127 127
0.523667 0.556629 -0.350328 204 51 127
-0.206928 0.265449 -0.272307 153 0 76
-0.131480 0.337397 -0.291585 153 0 76
-0.107796 -0.208921 -0.019844 153 0 76
0.582615 -0.202308 0.174142 153 0 76
0.349871 -0.208921 0.192646 153 0 76
0.236050 -0.186089 0.651049 153 0 76
-0.441147 -0.123676 -0.214427 204 51 127
0.143207 -0.223270 0.131164 153 0 76
0.566164 0.480467 -0.376307 204 51 127
-0.240454 0.134024 -0.283478 204 51 127
-0.055807 0.330242 -0.336054 204 51 127
0.015862 0.379350 -0.302826 153 0 76
-0.267329 -0.208921 0.224050 153 0 76
0.588021 -0.197401 0.214332 153 0 76
-0.151209 -0.208921 0.392096 153 0 76
-0.294349 -0.208921 0.007663 153 0 76
0.575558 0.609024 -0.410754 204 51 127
-0.179135 -0.223270 0.260477 153 0 76
0.391985 -0.223270 -0.073044 153 0 76
-0.037140 -0.223270 0.162901 153 0 76
-0.241851 -0.156062 -0.222806 153 0 76
-0.591163 0.147251 -0.287022 204 51 127
-0.281615 -0.223270 -0.060499 153 0 76
-0.358991 -0.167263 0.171460 0 127 127
0.218103 0.619925 -0.413675 204 51 127
0.269510 0.372168 -0.347288 204 51 127
0.140145 -0.156062 -0.105242 153 0 76
-0.316738 0.445873 -0.320651 153 0 76
-0.262410 -0.223270 0.194584 153 0 76
0.327277 -0.208921 -0.199771 153 0 76
0.357823 -0.223270 0.144798 153 0 76
-0.398517 -0.223270 0.575528 153 0 76
-0.251757 0.621284 -0.367652 153 0 76
-0.362062 -0.208921 0.601114 153 0 76
0.081006 -0.208921 -0.193917 153 0 76
0.054523 0.528415 -0.342768 153 0 76
-0.012591 -0.208921 0.370877 153 0 76
-0.087885 -0.156062 -0.035070 0 127 127
0.423733 -0.208921 0.495696 153 0 76
0.012700 0.063786 -0.218271 153 0 76
-0.108517 0.682001 -0.383921 204 51 127
0.371901 -0.223270 -0.052902 153 0 76
0.389076 0.590136 -0.359306 153 0 76
0.289180 -0.208921 0.333541 153 0 76
0.579749 0.004277 -0.202326 204 51 127
-0.258461 -0.208921 0.515587 153 0 76
0.211156 -0.167263 0.106137 0 127 127
-0.002108 0.331799 -0.290085 153 0 76
0.596290 -0.166332 -0.033220 153 0 76
-0.250131 -0.156062 0.370546 153 0 76
-0.311689 -0.167263 -0.068994 153 0 76
-0.004779 -0.161662 0.537994 153 0 76
0.054177 -0.074741 -0.227540 204 51 127
-0.580718 -0.208684 0.366010 153 0 76
0.381602 0.599188 -0.408118 204 51 127
0.271108 0.273102 -0.320744 204 51 127
-0.347560 -0.161016 0.342232 153 0 76
-0.205821 0.173337 -0.294012 204 51 127
-0.296888 -0.208921 0.424755 153 0 76
-0.586563 -0.004621 -0.246328 204 51 127
-0.578792 -0.208811 0.059697 153 0 76
-0.214119 -0.156062 0.440346 153 0 76
0.448299 -0.223270 -0.202012 153 0 76
-0.121193 -0.156062 0.634825 153 0 76
0.136841 -0.223270 0.589431 153 0 76
0.326375 -0.156062 -0.189102 204 51 127
-0.312276 -0.223270 0.351975 153 0 76
0.583715 -0.201519 -0.086432 153 0 76
-0.579751 -0.208748 0.551436 153 0 76
-0.539471 0.462170 -0.371404 204 51 127
-0.370551 0.313896 -0.285288 153 0 76
0.300059 -0.165212 0.097454 0 127 127
0.543959 0.297254 -0.280829 204 51 127
-0.257440 -0.156062 0.609422 153 0 76
-0.456132 -0.167263 0.089921 0 127 127
0.186163 -0.167263 -0.025788 0 127 127
-0.152295 -0.223270 0.148725 153 0 76
0.340562 -0.167263 0.327156 153 0 76
0.370520 -0.223270 0.174500 153 0 76
0.070725 0.057030 -0.262847 204 51 127
0.485113 -0.208921 0.393025 153 0 76
-0.223743 0.583969 -0.357654 153 0 76
0.175392 -0.223270 -0.173896 153 0 76
0.092790 0.702175 -0.389327 204 51 127
-0.269731 -0.042361 -0.189829 204 51 127
0.310795 -0.159794 0.273955 0 127 127
-0.231035 -0.223270 -0.032194 153 0 76
-0.219359 0.697058 -0.387956 204 51 127
0.477049 0.081872 -0.269504 204 51 127
0.376504 -0.156062 0.463645 153 0 76
0.056183 -0.208921 -0.016853 153 0 76
0.081866 -0.167263 0.173629 0 127 127
-0.322497 -0.208921 -0.122522 153 0 76
-0.410659 -0.208921 -0.187530 153 0 76
-0.580144 0.419676 -0.313632 204 51 127
-0.491949 -0.141587 -0.170561 204 51 127
0.002994 0.226111 -0.308152 204 51 127
0.167344 -0.223270 0.617327 153 0 76
0.596290 -0.165791 0.543396 153 0 76
0.351430 0.289821 -0.278837 153 0 76
-0.176134 -0.223270 0.011186 153 0 76
0.145444 0.339478 -0.338529 204 51 127
-0.019605 -0.223270 -0.073026 153 0 76
0.394454 0.112825 -0.277797 204 51 127
0.142002 0.022626 -0.207242 153 0 76
0.334833 -0.208921 -0.225576 153 0 76
-0.585602 0.388748 -0.305345 204 51 127
-0.172259 0.552583 -0.395630 204 51 127
-0.430001 0.365413 -0.345478 204 51 127
0.508856 0.481799 -0.330278 153 0 76
-0.124640 -0.156062 0.369671 153 0 76
-0.433427 -0.208921 0.315165 153 0 76
-0.441590 -0.208921 0.643103 153 0 76
0.575820 0.051903 -0.215087 204 51 127
0.033301 -0.057286 -0.185830 204 51 127
0.408359 0.696246 -0.387738 204 51 127
0.499685 -0.156062 0.414092 153 0 76
0.130705 -0.002855 -0.246801 204 51 127
0.046263 -0.090795 -0.176852 153 0 76
-0.256406 0.329942 -0.335974 204 51 127
-0.590851 0.193203 -0.252948 204 51 127
0.244326 -0.085339 -0.178313 204 51 127
0.302015 -0.167263 0.022908 0 127 127
-0.254014 0.708369 -0.390987 204 51 127
-0.604212 0.181324 -0.296152 204 51 127
-0.480156 -0.156062 0.167373 153 0 76
0.522571 0.003806 -0.248586 204 51 127
-0.410115 0.659470 -0.377884 204 51 127
-0.494225 -0.003042 -0.200365 153 0 76
-0.022682 -0.156062 -0.209193 153 0 76
-0.222465 -0.013998 -0.243816 204 51 127
0.332011 0.685407 -0.384834 204 51 127
0.172721 -0.136127 -0.211091 204 51 127
0.295989 0.352586 -0.342041 204 51 127
-0.243849 -0.158889 -0.017472 0 127 127
0.158787 -0.208921 -0.183034 153 0 76
0.049308 -0.167263 0.154963 0 127 127
0.507159 -0.068433 -0.182843 204 51 127
-0.597610 -0.156062 0.062570 153 0 76
0.488917 0.412317 -0.358046 204 51 127
-0.212392 0.715239 -0.409304 204 51 127
-0.330200 -0.187482 -0.245067 153 0 76
-0.119801 -0.208921 -0.039535 153 0 76
-0.024213 -0.156062 0.608000 153 0 76
-0.205811 0.567457 -0.353229 153 0 76
-0.041529 -0.040483 -0.190333 153 0 76
-0.191069 -0.167263 -0.071141 153 0 76
0.115807 0.047688 -0.260344 204 51 127
0.273491 -0.223270 -0.197588 153 0 76
-0.279686 0.320492 -0.287055 153 0 76
0.152791 -0.208921 -0.130435 153 0 76
-0.216686 0.136631 -0.237790 153 0 76
-0.175229 -0.161026 -0.004906 0 127 127
-0.040233 0.099910 -0.274337 204 51 127
-0.482045 0.505266 -0.382952 204 51 127
0.038746 -0.208921 0.648788 153 0 76
-0.317873 -0.223270 -0.170202 153 0 76
0.583486 -0.201683 -0.135054 153 0 76
-0.404176 -0.223270 0.463009 153 0 76
-0.027267 -0.156062 0.569280 153 0 76
0.438632 -0.134583 -0.211505 153 0 76
0.047747 0.236976 -0.311064 204 51 127
-0.223797 0.178435 -0.248991 153 0 76
0.184986 -0.223270 0.209921 153 0 76
0.240438 0.074810 -0.267612 204 51 127
0.019679 0.448758 -0.321424 153 0 76
-0.217399 -0.223270 0.221668 153 0 76
-0.016730 -0.208921 0.108156 153 0 76
0.148313 0.661195 -0.378346 204 51 127
-0.529853 -0.027598 -0.193785 204 51 127
0.149511 -0.156062 0.574694 153 0 76
0.556694 -0.025552 -0.240720 204 51 127
-0.492818 -0.208921 0.354757 153 0 76
0.362790 0.523055 -0.341332 153 0 76
0.435943 0.496060 -0.334099 153 0 76
0.288961 -0.156062 -0.016740 0 127 127
-0.067503 0.527572 -0.388929 204 51 127
0.110706 -0.223270 0.492268 153 0 76
-0.610038 -0.187817 0.263880 153 0 76
0.529827 0.446255 -0.367140 204 51 127
-0.233775 -0.159401 0.113366 0 127 127
-0.395622 -0.164394 0.334404 153 0 76
-0.082599 -0.156062 0.377178 153 0 76
0.343816 -0.223270 -0.033831 153 0 76
-0.334019 -0.156062 0.601461 153 0 76
-0.033890 0.272757 -0.320651 204 51 127
0.132623 -0.223270 0.309443 153 0 76
-0.085318 -0.223270 0.396732 153 0 76
0.385825 -0.208921 0.248877 153 0 76
0.434532 -0.223270 0.217720 153 0 76
-0.155963 -0.156062 0.191875 0 127 127
-0.176308 0.594186 -0.406778 204 51 127
-0.283127 -0.208921 0.557040 153 0 76
0.145211 -0.167263 0.073128 0 127 127
-0.286090 -0.167263 0.159686 0 127 127
0.189775 -0.156062 0.403617 153 0 76
0.229974 0.022636 -0.207245 153 0 76
-0.504732 0.380391 -0.303105 153 0 76
0.128082 0.139818 -0.285030 204 51 127
0.383977 -0.043669 -0.235865 204 51 127
0.349257 -0.167263 0.163602 0 127 127
0.092230 -0.208921 0.367730 153 0 76
-0.381083 -0.092378 -0.176427 204 51 127
0.515760 -0.208921 0.629890 153 0 76
-0.515511 0.176900 -0.248580 153 0 76
-0.519014 -0.223270 0.446773 153 0 76
-0.488628 0.085286 -0.224032 153 0 76
0.368225 -0.098643 -0.174749 204 51 127
0.437439 0.175068 -0.248089 153 0 76
-0.589913 -0.156062 0.566296 153 0 76
0.330308 -0.223270 0.445994 153 0 76
0.254822 -0.208921 0.033784 153 0 76
0.244396 0.152116 -0.241939 153 0 76
-0.359245 -0.156062 -0.156429 153 0 76
0.593237 -0.189370 0.590431 153 0 76
0.256948 -0.156062 -0.042826 0 127 127
-0.402694 -0.208921 0.238376 153 0 76
-0.241154 -0.223270 0.337603 153 0 76
-0.255495 0.397254 -0.307624 153 0 76
-0.242018 -0.208921 0.254396 153 0 76
-0.375906 0.445815 -0.367022 204 51 127
-0.206682 -0.156062 0.589201 153 0 76
0.303338 -0.208921 0.620683 153 0 76
-0.000492 0.669978 -0.407776 0 0 255
-0.612529 0.396627 -0.323228 204 51 127
-0.417485 0.158262 -0.289972 204 51 127
0.145855 -0.215936 -0.218503 153 0 76
-0.007911 -0.208921 0.166507 153 0 76
0.200628 0.172261 -0.293724 204 51 127
-0.033476 0.224173 -0.261247 153 0 76
-0.383755 -0.208921 0.136050 153 0 76
0.518656 -0.223270 -0.208163 153 0 76
-0.099911 -0.208921 0.372789 153 0 76
-0.066538 -0.223270 0.282635 153 0 76
-0.612529 0.611277 -0.384127 204 51 127
0.552654 -0.221551 0.138943 153 0 76
-0.592630 0.085413 -0.270452 204 51 127
0.313659 -0.223270 -0.130857 153 0 76
-0.550452 -0.005308 -0.199758 204 51 127
-0.061621 -0.161662 0.528968 153 0 76
0.313060 0.129665 -0.282310 204 51 127
-0.577956 -0.156062 -0.176671 153 0 76
-0.480284 0.039677 -0.211811 153 0 76
0.442305 -0.208921 -0.048818 153 0 76
0.172993 -0.205412 -0.245067 153 0 76
-0.298952 -0.223270 0.172992 153 0 76
0.000716 -0.208921 -0.232861 153 0 76
-0.382620 -0.208921 0.426340 153 0 76
0.186728 -0.223270 -0.147992 153 0 76
0.416809 0.534052 -0.344279 153 0 76
0.415201 -0.208921 0.314076 153 0 76
-0.264780 -0.208921 -0.011967 153 0 76
0.252754 0.490815 -0.332693 153 0 76
-0.265723 0.632770 -0.417117 204 51 127
0.346779 0.008133 -0.249746 204 51 127
-0.342371 -0.223270 0.548786 153 0 76
0.536970 0.263992 -0.318303 204 51 127
0.203470 -0.208921 0.458017 153 0 76
