ply
format ascii 1.0
element vertex 1304
property float x
property float y
property float z
property uchar red
property uchar green
property uchar blue
end_header
-0.396667 0.608604 0.170651 0 255 0
-0.244145 -0.719759 -0.051927 0 255 0
-0.263591 0.136687 0.119726 0 255 0
0.081425 0.063646 -0.366299 0 255 0
-0.056490 0.729022 -0.355507 0 255 0
0.508534 -0.355422 0.255698 0 255 0
0.435493 0.227835 0.293017 0 255 0
-0.409807 0.621422 -0.476658 0 255 0
-0.246331 -0.103395 0.399323 0 0 255
0.222324 0.523876 -0.380013 0 255 0
0.337127 -0.580970 0.401654 0 0 255
0.296956 -0.056576 -0.076790 0 255 0
0.434586 0.136687 -0.118242 0 255 0
0.191035 0.136687 0.107874 0 255 0
0.343038 -0.056576 -0.247984 0 255 0
0.508534 -0.020748 -0.055779 0 255 0
0.110972 -0.033475 0.403942 204 51 127
0.508534 -0.751839 0.230590 0 255 0
0.037987 -0.719759 0.180745 0 255 0
0.468245 -0.236804 -0.476658 0 255 0
-0.433399 0.729022 0.178521 0 255 0
0.223854 0.036655 0.085245 0 255 0
0.415304 -0.527555 -0.324121 0 255 0
0.435493 0.220784 -0.281955 0 255 0
0.415304 -0.551746 0.038230 0 255 0
0.313603 0.655981 -0.341968 0 255 0
0.034145 0.672764 -0.476658 0 255 0
0.468205 -0.452241 0.024920 127 127 0
0.197473 -0.315659 -0.071490 127 0 127
-0.181971 0.729022 -0.038979 0 255 0
-0.118157 -0.719759 -0.347406 0 255 0
0.478062 0.301640 0.252028 0 255 0
-0.476259 -0.608360 -0.013220 0 255 0
0.368547 -0.319854 0.399323 0 0 255
0.305033 0.600003 0.374396 0 255 0
-0.178495 0.507901 0.374396 0 255 0
0.092191 0.302610 0.267033 0 255 0
0.397460 0.036655 -0.156823 0 255 0
0.508534 0.090360 0.022048 0 255 0
-0.440800 0.523876 -0.357068 0 255 0
-0.077639 -0.316141 0.274843 127 0 127
0.415304 -0.093889 0.288206 0 255 0
-0.303366 0.729022 -0.098643 0 255 0
-0.341023 0.655981 0.179793 0 255 0
0.242403 -0.795258 0.374396 0 255 0
-0.327697 0.596894 -0.476658 0 255 0
0.017480 -0.178599 0.399323 0 0 255
-0.442765 0.036655 0.285541 0 255 0
0.470824 -0.463065 0.403942 204 51 127
0.282256 0.655981 -0.164752 0 255 0
0.190536 -0.445471 -0.112927 127 127 0
0.028167 -0.444220 -0.226578 127 127 0
0.155424 -0.478353 0.399323 0 0 255
-0.037565 0.608604 -0.162625 0 255 0
-0.478451 -0.438007 0.311255 0 255 0
0.432010 0.136687 0.329449 0 255 0
-0.476259 0.179038 -0.379538 0 255 0
-0.045893 0.053442 0.369578 153 76 0
-0.360673 0.491938 -0.476658 0 255 0
-0.202946 -0.812989 -0.255267 0 255 0
0.225118 0.136687 -0.197263 0 255 0
-0.348176 0.063646 0.034410 0 255 0
0.273276 0.295242 -0.415882 0 255 0
-0.203511 0.063646 -0.300015 0 255 0
-0.476500 0.339713 0.396760 153 76 0
-0.483481 -0.319868 0.366557 0 255 0
0.124620 -0.444083 -0.481156 0 255 0
-0.476259 -0.402846 0.018063 0 255 0
-0.403218 0.221078 -0.258004 0 255 0
0.132100 0.608604 0.035996 0 255 0
0.027228 -0.445471 -0.135506 127 127 0
-0.196371 0.136687 -0.370810 0 255 0
0.086093 0.021605 0.403942 204 51 127
-0.167528 0.655981 -0.374042 0 255 0
0.255035 -0.237244 -0.481156 0 255 0
0.480621 -0.325148 0.340506 127 0 127
0.059139 0.307872 0.399323 76 0 153
-0.349477 0.313294 -0.224003 0 255 0
0.083886 -0.315219 -0.074798 127 0 127
0.401309 -0.442764 -0.196023 127 127 0
-0.006218 0.614384 -0.476658 0 255 0
0.499209 0.705913 -0.083377 0 255 0
0.273239 0.608604 0.035526 0 255 0
-0.046245 -0.132123 -0.481156 0 255 0
0.151752 -0.056576 -0.331266 0 255 0
-0.376228 0.655981 0.370964 0 255 0
-0.365226 0.535563 -0.179141 0 255 0
0.093369 -0.168601 -0.476658 0 255 0
-0.476159 -0.665927 0.308883 0 255 0
-0.148091 -0.056576 0.302363 0 255 0
0.098884 0.556250 -0.476658 0 255 0
0.029290 0.745625 0.405401 0 255 0
-0.211763 0.729022 -0.189016 0 255 0
-0.032612 -0.719759 0.345249 0 255 0
-0.476259 0.242635 0.099990 0 255 0
-0.126775 0.437630 -0.415882 0 255 0
0.057087 0.535563 0.354134 0 255 0
-0.476259 0.430413 0.153661 0 255 0
-0.426887 -0.392436 0.374396 0 255 0
0.508534 -0.225097 -0.285900 0 255 0
-0.476259 0.296267 -0.231246 0 255 0
0.111714 0.608604 -0.083051 0 255 0
-0.394239 -0.812989 -0.016498 0 255 0
-0.298939 -0.445471 0.133456 127 127 0
0.245438 0.137163 -0.476658 0 255 0
0.319869 -0.719759 -0.436370 0 255 0
0.508534 -0.480223 -0.009031 0 255 0
-0.031351 -0.056576 -0.368564 0 255 0
-0.166892 0.315335 0.399323 76 0 153
-0.063808 0.608604 -0.347426 0 255 0
0.154024 -0.840088 0.378201 204 51 127
0.291957 0.655981 -0.047444 0 255 0
0.036640 0.655981 0.329140 0 255 0
0.100587 -0.719759 -0.232754 0 255 0
0.063192 0.450835 -0.104153 0 255 0
-0.315044 -0.425490 -0.481156 0 255 0
0.208232 0.450835 -0.129722 0 255 0
-0.383028 -0.319835 0.181382 0 255 0
0.042012 0.608604 0.072254 0 255 0
0.004536 0.063646 -0.383449 0 255 0
-0.476259 -0.771313 -0.226763 0 255 0
0.120331 -0.718148 -0.476658 0 255 0
0.038240 -0.812989 -0.056803 0 255 0
0.513169 -0.440288 0.355003 0 255 0
0.393426 0.496703 0.374396 0 255 0
-0.100126 0.729022 -0.028498 0 255 0
0.208037 -0.719759 -0.145284 0 255 0
0.167062 0.608604 -0.229192 0 255 0
-0.476259 0.036621 -0.456798 0 255 0
0.394269 0.036655 0.126903 0 255 0
-0.361584 -0.447097 0.358952 127 127 0
-0.466896 0.236285 -0.476658 0 255 0
0.089463 -0.056576 0.020213 0 255 0
-0.222183 0.450835 0.341191 0 255 0
-0.201902 0.729022 -0.096272 0 255 0
0.453908 -0.812989 -0.139532 0 255 0
-0.383028 -0.555081 0.166558 0 255 0
0.301438 0.516904 0.377144 153 76 0
0.508534 0.094948 -0.423716 0 255 0
0.138670 0.450835 -0.255227 0 255 0
0.241051 0.470499 -0.476658 0 255 0
-0.476259 0.083536 -0.407838 0 255 0
-0.302303 0.523876 -0.069652 0 255 0
0.216754 0.128650 0.403942 153 76 0
0.044543 0.453716 0.454731 153 0 76
-0.017709 -0.812989 0.028116 0 255 0
-0.436187 -0.173351 0.403942 204 51 127
0.508534 0.163124 -0.104897 0 255 0
-0.252574 -0.445157 0.203346 127 127 0
0.435493 0.285838 -0.009460 0 255 0
-0.342240 0.400352 -0.415882 0 255 0
-0.476259 -0.071097 -0.116906 0 255 0
0.251993 0.729022 -0.411625 0 255 0
0.356808 -0.325155 0.345919 127 0 127
0.145424 -0.314400 0.342028 127 0 127
-0.264360 -0.762474 0.403942 204 51 127
-0.295147 0.496628 0.399280 153 76 0
-0.328120 0.136687 -0.203962 0 255 0
-0.225486 0.684522 0.397934 76 0 153
0.465173 -0.445894 0.279003 127 127 0
-0.245077 0.729022 0.185760 0 255 0
0.302730 -0.056576 0.355397 0 255 0
-0.053154 0.608604 0.371058 0 255 0
-0.128052 0.608604 -0.299739 0 255 0
-0.058807 0.136687 -0.183515 0 255 0
0.415304 -0.181018 -0.245609 0 255 0
0.415304 -0.157823 -0.419087 0 255 0
-0.205965 0.136687 -0.267778 0 255 0
0.346817 -0.444845 0.171678 127 127 0
-0.449417 -0.608894 0.399280 204 51 127
0.302532 -0.315606 0.264968 127 0 127
-0.343910 0.729022 0.236664 0 255 0
0.457135 -0.812989 0.359809 0 255 0
-0.289133 0.036655 -0.430593 0 255 0
0.361823 0.366480 -0.415882 0 255 0
-0.476259 -0.304677 -0.012193 0 255 0
-0.403115 -0.485550 0.403942 204 51 127
0.359054 -0.315659 -0.125914 127 0 127
0.508534 -0.533738 -0.133693 0 255 0
-0.259907 0.655981 -0.282989 0 255 0
0.508534 0.400268 0.238949 0 255 0
0.378728 -0.719759 0.322576 0 255 0
0.338812 0.136687 0.162816 0 255 0
0.415304 -0.078238 -0.347515 0 255 0
-0.066654 0.523876 0.287835 0 255 0
0.196285 0.608604 0.209284 0 255 0
0.508534 -0.666621 -0.242924 0 255 0
-0.015526 0.608604 -0.299593 0 255 0
-0.007089 -0.056576 -0.193217 0 255 0
0.362254 -0.203699 -0.481156 0 255 0
-0.420161 -0.318523 0.273193 127 0 127
0.508534 -0.653459 0.270551 0 255 0
0.435131 0.729022 0.070746 0 255 0
0.280818 0.450835 0.241486 0 255 0
0.175188 0.655981 -0.316664 0 255 0
-0.225493 -0.050097 -0.476658 0 255 0
0.515856 0.187163 0.357309 0 255 0
0.260222 -0.719759 -0.023664 0 255 0
-0.252599 -0.438626 -0.074144 127 127 0
-0.466934 0.570246 0.085708 0 255 0
-0.345915 0.450835 0.107365 0 255 0
-0.483481 0.370735 0.351892 0 255 0
-0.424109 0.535563 -0.242392 0 255 0
0.042626 -0.812989 0.155432 0 255 0
-0.083108 0.523876 -0.188684 0 255 0
-0.420768 0.729022 0.353166 0 255 0
0.375468 -0.376733 0.403942 204 51 127
-0.020005 -0.411369 0.399323 0 0 255
-0.152912 -0.056576 -0.296602 0 255 0
0.501703 0.331013 -0.476658 0 255 0
0.091735 0.107655 -0.476658 0 255 0
0.374225 -0.802591 0.399280 204 51 127
0.158120 -0.113415 -0.481156 0 255 0
0.056339 0.608604 0.244533 0 255 0
-0.476259 -0.262932 -0.433387 0 255 0
0.103743 0.608604 0.193702 0 255 0
0.248176 -0.719759 0.292949 0 255 0
-0.383028 -0.269843 -0.479501 0 255 0
-0.337533 0.063646 -0.282693 0 255 0
-0.013329 0.167383 -0.415882 0 255 0
0.415304 -0.147326 0.064500 0 255 0
0.508534 0.109684 -0.314454 0 255 0
0.168929 -0.719759 0.342768 0 255 0
0.341180 0.523876 -0.148300 0 255 0
0.262022 0.762106 0.376133 0 255 0
-0.115602 -0.334298 -0.481156 0 255 0
-0.238246 -0.315659 0.100952 127 0 127
0.195277 0.313294 0.068452 0 255 0
0.308891 -0.315659 -0.047558 127 0 127
-0.478451 0.121310 0.329613 0 255 0
-0.476259 0.159211 -0.108492 0 255 0
-0.356837 0.655981 -0.293859 0 255 0
-0.125014 -0.068874 -0.481156 0 255 0
-0.130951 0.120015 0.374396 0 255 0
0.071498 0.655981 -0.271340 0 255 0
0.457166 0.247430 -0.476658 0 255 0
-0.476259 -0.176729 -0.436093 0 255 0
-0.009085 0.655981 -0.086486 0 255 0
-0.151739 0.060887 0.403942 153 76 0
-0.038458 -0.676587 0.399280 204 51 127
-0.367848 -0.056576 0.001017 0 255 0
-0.323148 0.523876 0.343061 0 255 0
-0.130875 -0.315659 -0.233191 127 0 127
-0.221571 0.729022 0.029455 0 255 0
-0.383028 -0.359669 -0.064423 0 255 0
-0.301368 -0.655020 0.399280 204 51 127
-0.108232 0.523876 -0.408535 0 255 0
-0.032012 0.655981 0.219338 0 255 0
-0.208581 0.608604 -0.022365 0 255 0
0.422073 0.563079 -0.476658 0 255 0
0.434602 0.729022 0.238179 0 255 0
-0.309338 0.137419 -0.476658 0 255 0
-0.476159 -0.217764 0.325624 0 255 0
-0.476259 0.202392 -0.068722 0 255 0
-0.236990 -0.315972 0.345825 127 0 127
-0.466934 0.599196 -0.054857 0 255 0
0.168337 0.647063 -0.476658 0 255 0
-0.476259 -0.051193 0.334554 0 255 0
0.281706 -0.075606 0.403942 204 51 127
-0.476259 -0.576539 -0.440151 0 255 0
0.415304 -0.167964 -0.021614 0 255 0
-0.306791 0.707385 -0.476658 0 255 0
-0.230812 0.173561 0.400447 153 76 0
-0.326050 0.136687 0.053207 0 255 0
-0.030129 -0.437166 0.223393 127 127 0
-0.176455 -0.812989 -0.394119 0 255 0
0.055960 0.063646 0.268480 0 255 0
0.016133 0.608604 -0.352115 0 255 0
-0.383028 -0.367109 0.356583 0 255 0
0.435493 0.643724 -0.001109 0 255 0
-0.196849 0.450835 -0.085053 0 255 0
-0.404592 0.729022 -0.039129 0 255 0
-0.089122 -0.442501 -0.209774 127 127 0
-0.214190 0.608604 0.141118 0 255 0
-0.163810 0.452315 0.403942 153 76 0
0.054390 0.450835 0.268064 0 255 0
-0.372857 0.729022 -0.259142 0 255 0
-0.383028 -0.240554 0.360453 0 255 0
-0.200678 0.201828 -0.476658 0 255 0
-0.476259 0.232416 0.286388 0 255 0
-0.295151 0.608604 -0.219791 0 255 0
-0.383028 -0.594530 -0.048973 0 255 0
-0.383028 -0.247673 -0.283402 0 255 0
-0.361834 0.036655 0.334778 0 255 0
0.000130 0.729022 0.357744 0 255 0
-0.111983 -0.719759 -0.034774 0 255 0
-0.343043 0.535563 -0.450248 0 255 0
-0.014420 0.450835 -0.389781 0 255 0
-0.222847 -0.812989 0.011640 0 255 0
-0.093893 0.608604 -0.171194 0 255 0
0.508534 -0.225344 0.331364 0 255 0
-0.267478 0.655981 -0.163170 0 255 0
0.448002 -0.603674 -0.476658 0 255 0
0.284840 -0.174115 -0.476658 0 255 0
-0.278193 0.523876 -0.278623 0 255 0
0.148208 -0.318745 -0.178143 127 0 127
-0.258053 0.063646 0.183124 0 255 0
-0.024831 -0.307354 0.178750 127 0 127
0.378590 0.608604 0.302675 0 255 0
0.047617 -0.056576 0.346192 0 255 0
-0.378111 0.608604 0.013221 0 255 0
-0.025098 -0.314246 -0.243552 127 0 127
0.264386 0.729022 -0.297359 0 255 0
-0.476259 0.428642 0.060532 0 255 0
-0.165250 -0.033115 0.374396 0 255 0
0.215343 0.243865 -0.476658 0 255 0
-0.372147 0.330079 0.401654 76 0 153
-0.181742 0.136687 0.343489 0 255 0
-0.478451 -0.752796 0.311385 0 255 0
0.508534 0.257678 -0.119960 0 255 0
0.438153 0.181838 0.403942 153 76 0
0.111997 0.523876 -0.226555 0 255 0
0.251057 -0.294695 -0.297949 127 0 127
-0.153824 -0.784894 0.374396 0 255 0
0.235409 0.608604 0.149606 0 255 0
-0.466934 0.622548 0.184364 0 255 0
0.302997 0.193179 -0.476658 0 255 0
-0.242778 -0.056576 0.277183 0 255 0
0.072991 0.451941 -0.476658 0 255 0
0.418345 0.608604 0.185186 0 255 0
-0.278140 0.655981 -0.074363 0 255 0
-0.383028 -0.095522 0.165925 0 255 0
-0.103629 0.450835 -0.215873 0 255 0
0.047866 -0.766979 -0.476658 0 255 0
-0.298071 0.036655 0.001036 0 255 0
-0.026325 -0.441393 -0.231439 127 127 0
-0.309250 -0.196294 0.401654 0 0 255
0.056292 -0.652106 0.399280 204 51 127
0.175981 -0.784414 0.374396 0 255 0
-0.228561 0.576938 0.401075 0 255 0
0.035368 0.313294 -0.068412 0 255 0
0.515856 -0.283984 0.403390 204 51 127
0.021171 -0.437166 0.147433 127 127 0
0.037699 0.305709 0.171468 0 255 0
-0.234457 0.540380 -0.476658 0 255 0
0.415304 -0.270606 -0.315399 0 255 0
-0.399919 -0.807448 0.403942 204 51 127
0.140942 0.064841 0.403942 153 76 0
-0.258320 -0.812989 -0.443739 0 255 0
-0.469725 0.700971 0.405493 0 255 0
0.200060 0.608604 -0.165116 0 255 0
-0.182708 0.420376 -0.476658 0 255 0
0.499209 0.556976 0.223219 0 255 0
-0.254789 0.188527 -0.415882 0 255 0
0.508534 -0.264996 0.214505 0 255 0
-0.342086 0.450835 -0.222841 0 255 0
0.083886 0.305188 0.140954 0 255 0
-0.380025 0.655981 -0.362050 0 255 0
0.302179 0.678134 0.397548 76 0 153
0.415304 -0.570605 0.283909 0 255 0
0.366799 -0.286643 -0.289970 127 0 127
0.196009 -0.238868 0.399323 0 0 255
0.475801 0.478147 0.403942 153 76 0
-0.340034 0.450835 0.214991 0 255 0
0.309651 0.136687 0.330658 0 255 0
-0.160301 0.063646 -0.353280 0 255 0
0.508534 -0.698584 0.030089 0 255 0
0.241553 -0.056576 0.047633 0 255 0
0.508534 -0.186723 -0.150193 0 255 0
-0.383028 -0.628128 -0.263379 0 255 0
-0.476259 -0.029558 0.054187 0 255 0
0.508534 -0.600535 0.124739 0 255 0
-0.476259 -0.313762 0.215147 0 255 0
-0.415649 0.586826 0.404542 0 255 0
0.411184 0.063646 -0.420203 0 255 0
-0.398963 0.450835 0.345631 0 255 0
-0.180725 -0.618244 -0.476658 0 255 0
-0.051838 -0.719759 -0.433429 0 255 0
-0.476259 0.157512 -0.315308 0 255 0
0.251079 0.655981 0.285631 0 255 0
-0.253051 -0.715430 -0.481156 0 255 0
-0.383028 -0.210076 -0.383182 0 255 0
0.198344 -0.307354 0.070103 127 0 127
0.238959 -0.056576 -0.224782 0 255 0
0.049565 -0.812989 0.349210 0 255 0
0.508534 0.423661 0.095967 0 255 0
-0.426415 0.036655 -0.209117 0 255 0
-0.243067 -0.314285 -0.233796 127 0 127
-0.315563 -0.207954 -0.476658 0 255 0
-0.221569 -0.367628 -0.476658 0 255 0
-0.109389 0.136687 -0.284816 0 255 0
0.147977 -0.599838 -0.481156 0 255 0
0.032492 0.535563 -0.048015 0 255 0
0.294482 -0.809427 -0.476658 0 255 0
0.508534 -0.768011 -0.262488 0 255 0
-0.383028 -0.292799 -0.352450 0 255 0
0.497041 -0.554220 -0.476658 0 255 0
-0.476259 -0.139401 -0.222531 0 255 0
0.307319 -0.408917 0.401654 0 0 255
0.259614 0.608604 -0.158494 0 255 0
0.365512 0.136687 -0.203024 0 255 0
0.448984 -0.586774 0.403942 204 51 127
-0.135310 -0.437444 -0.235533 127 127 0
-0.403218 0.273831 -0.286721 0 255 0
-0.317756 -0.719759 0.288860 0 255 0
0.238383 0.608604 -0.277229 0 255 0
-0.140147 0.729022 0.356334 0 255 0
0.219818 0.655981 0.230986 0 255 0
0.001432 -0.719759 -0.291168 0 255 0
-0.233900 -0.719759 0.277329 0 255 0
0.087869 0.313294 -0.235523 0 255 0
0.339682 0.008230 0.399280 204 51 127
0.269445 -0.448149 -0.476658 0 255 0
0.287180 0.036655 0.121494 0 255 0
-0.403218 0.302306 0.348005 0 255 0
-0.476259 -0.700383 -0.201342 0 255 0
0.325589 0.608604 -0.056826 0 255 0
0.355121 -0.439698 -0.119261 127 127 0
0.137350 -0.389447 -0.476658 0 255 0
-0.312804 -0.056576 -0.109287 0 255 0
-0.278561 0.450835 0.184455 0 255 0
0.217318 0.301824 0.339990 0 255 0
-0.021509 0.036655 -0.103531 0 255 0
0.459352 0.535563 0.132128 0 255 0
-0.011358 0.036655 0.099219 0 255 0
0.301646 0.450835 -0.122334 0 255 0
0.214635 -0.056576 -0.346175 0 255 0
-0.197420 0.523876 -0.241783 0 255 0
0.478272 -0.128121 -0.476658 0 255 0
0.508534 0.084541 -0.239096 0 255 0
0.377386 0.535563 -0.081420 0 255 0
0.508534 -0.490347 -0.258835 0 255 0
0.478639 0.729022 -0.287175 0 255 0
-0.234748 0.136687 -0.017740 0 255 0
0.499209 0.687831 -0.312732 0 255 0
0.164624 -0.045060 0.460781 255 0 0
0.279682 -0.319517 -0.186447 127 0 127
0.334169 -0.169880 0.401654 0 0 255
0.134520 0.762368 0.395204 0 255 0
0.198156 -0.056576 -0.054471 0 255 0
0.034508 0.535563 0.088333 0 255 0
0.115987 -0.450021 0.349590 127 127 0
0.170660 0.319557 0.399323 76 0 153
-0.476259 -0.194924 -0.201928 0 255 0
0.458069 0.036655 -0.092426 0 255 0
-0.383028 -0.202086 0.109938 0 255 0
0.198633 0.313294 -0.069641 0 255 0
0.467836 -0.323910 -0.183805 127 0 127
0.128265 0.655981 -0.216482 0 255 0
0.508534 -0.019807 -0.312808 0 255 0
-0.403218 0.354309 0.199249 0 255 0
-0.260181 -0.530473 -0.481156 0 255 0
-0.404265 0.523876 -0.430072 0 255 0
-0.289256 -0.307545 0.001710 127 0 127
0.067890 -0.056576 0.102035 0 255 0
0.148332 0.655981 -0.060837 0 255 0
0.295859 -0.719759 0.056940 0 255 0
-0.476259 0.031526 -0.159556 0 255 0
0.435493 0.210593 -0.337330 0 255 0
-0.130869 -0.315659 0.054684 127 0 127
0.508534 0.273629 0.154378 0 255 0
0.386224 0.244338 -0.415882 0 255 0
0.182807 -0.164565 -0.476658 0 255 0
-0.476259 0.472700 -0.344511 0 255 0
-0.184320 0.385211 0.401654 76 0 153
0.004084 -0.840983 0.376314 204 51 127
-0.243610 0.655981 0.051711 0 255 0
0.011732 -0.365360 -0.476658 0 255 0
0.204872 -0.056576 -0.433584 0 255 0
0.259602 0.535563 -0.419785 0 255 0
-0.383028 -0.588310 -0.371367 0 255 0
-0.115899 0.655981 0.005749 0 255 0
-0.393910 0.036655 -0.382023 0 255 0
0.393908 0.450835 -0.012691 0 255 0
-0.383028 -0.457840 -0.396407 0 255 0
0.301856 -0.313206 0.082444 127 0 127
-0.409999 0.298477 0.140190 0 255 0
0.415304 -0.629550 -0.048469 0 255 0
0.482805 0.296176 -0.184952 0 255 0
0.132701 0.523886 0.399569 153 76 0
0.508534 -0.356683 -0.251995 0 255 0
0.304787 0.450835 -0.187606 0 255 0
0.310932 -0.719759 -0.211126 0 255 0
0.066263 -0.074555 0.471427 255 0 0
0.499209 0.710376 0.159173 0 255 0
0.128847 -0.435651 -0.239496 127 127 0
0.185545 0.036655 0.286094 0 255 0
-0.031695 0.608604 -0.050442 0 255 0
0.393374 0.450835 0.054826 0 255 0
-0.335911 0.655981 -0.000300 0 255 0
0.074372 0.655981 -0.403462 0 255 0
-0.201783 0.608604 0.085011 0 255 0
-0.476259 -0.680439 -0.004697 0 255 0
-0.289256 0.311698 0.084209 0 255 0
0.355896 0.535563 0.292057 0 255 0
0.160195 0.450835 0.071315 0 255 0
-0.476259 -0.016354 0.126103 0 255 0
0.358608 0.304989 -0.009207 0 255 0
-0.106193 0.608604 0.116651 0 255 0
-0.440893 -0.782848 0.374396 0 255 0
0.241866 0.655981 0.101834 0 255 0
-0.031121 0.063646 -0.459251 0 255 0
0.415304 -0.198169 -0.152242 0 255 0
0.021110 0.729022 0.042454 0 255 0
-0.108257 0.678867 0.374396 0 255 0
-0.403218 0.330882 0.245429 0 255 0
-0.014060 0.136687 -0.263422 0 255 0
-0.465590 0.036655 -0.255742 0 255 0
-0.050388 0.655981 -0.290113 0 255 0
-0.476259 -0.510280 0.008505 0 255 0
-0.329143 0.136687 -0.068938 0 255 0
-0.074989 -0.812989 0.132647 0 255 0
0.508534 -0.075136 -0.174297 0 255 0
0.256338 -0.507516 0.401654 0 0 255
0.001772 0.136687 -0.075187 0 255 0
0.213174 0.012722 -0.476658 0 255 0
0.435493 0.344878 0.348592 0 255 0
-0.116214 0.655981 -0.144522 0 255 0
-0.383028 -0.057069 -0.216400 0 255 0
0.079424 -0.437166 -0.157109 127 127 0
-0.020493 0.450835 0.145126 0 255 0
-0.035222 -0.640377 -0.476658 0 255 0
0.250418 -0.307354 0.014122 127 0 127
0.415304 -0.274765 -0.459776 0 255 0
0.379346 -0.056576 0.277505 0 255 0
-0.136903 0.608604 0.189240 0 255 0
0.022409 0.523876 -0.404181 0 255 0
-0.397536 0.280790 -0.476658 0 255 0
0.415067 0.315025 -0.260957 0 255 0
-0.250930 -0.812989 0.069648 0 255 0
0.233265 0.523876 -0.163713 0 255 0
0.505687 0.523876 0.052464 0 255 0
0.499209 0.570057 -0.289233 0 255 0
-0.252450 -0.445471 -0.209070 127 127 0
0.508534 0.324911 0.035071 0 255 0
0.353768 -0.437909 -0.481156 0 255 0
0.508534 -0.213076 0.083559 0 255 0
-0.095908 0.063646 -0.117077 0 255 0
-0.210178 0.535563 -0.361073 0 255 0
0.508534 -0.408135 -0.224127 0 255 0
0.377809 0.655981 0.085957 0 255 0
-0.352053 0.307512 0.199061 0 255 0
0.319772 0.608604 0.096693 0 255 0
-0.352244 0.655981 -0.155770 0 255 0
0.129895 0.136687 -0.297861 0 255 0
0.181988 -0.251130 -0.476658 0 255 0
-0.078806 0.558363 -0.476658 0 255 0
-0.336453 -0.719759 0.076714 0 255 0
-0.289256 0.306371 -0.131496 0 255 0
-0.481234 0.452517 0.403942 153 76 0
0.357813 0.749162 0.372807 0 255 0
0.478932 0.063646 -0.194914 0 255 0
0.399144 -0.572756 -0.481156 0 255 0
-0.162350 -0.719759 -0.444416 0 255 0
0.143660 -0.812989 -0.435457 0 255 0
0.193963 0.608604 0.046192 0 255 0
0.095290 -0.389428 0.401654 0 0 255
0.010498 -0.228503 -0.476658 0 255 0
0.317392 -0.540327 -0.481156 0 255 0
-0.211251 -0.719759 -0.142511 0 255 0
0.382780 0.729022 -0.134028 0 255 0
0.410500 0.655981 -0.248223 0 255 0
-0.018723 0.655981 0.104690 0 255 0
-0.331905 0.608604 -0.309889 0 255 0
0.266283 -0.348550 -0.476658 0 255 0
-0.352053 -0.314318 -0.206075 127 0 127
0.415304 -0.437041 0.249255 0 255 0
-0.118107 -0.719759 0.296665 0 255 0
-0.476259 -0.766413 0.031759 0 255 0
0.167093 -0.812989 0.028447 0 255 0
-0.116909 0.655981 0.303431 0 255 0
0.185276 0.608604 0.269624 0 255 0
0.064081 0.063646 -0.063213 0 255 0
0.185017 0.483236 0.403942 153 76 0
-0.476259 -0.501321 -0.066225 0 255 0
-0.178599 0.450835 0.008604 0 255 0
0.163537 0.655981 0.257276 0 255 0
0.141185 0.729022 -0.425449 0 255 0
0.252475 -0.315659 0.200403 127 0 127
-0.403218 0.611716 -0.384854 0 255 0
0.280679 0.608604 0.232185 0 255 0
-0.116878 0.036655 0.039376 0 255 0
-0.134083 -0.312764 -0.006901 127 0 127
0.434414 0.450835 0.223083 0 255 0
0.068779 0.608604 -0.182299 0 255 0
-0.230733 0.729022 -0.425052 0 255 0
-0.466934 0.645952 0.339701 0 255 0
0.317992 0.729022 0.048434 0 255 0
-0.403218 0.141168 -0.173203 0 255 0
0.229452 -0.719759 -0.350402 0 255 0
-0.017601 0.655981 0.318122 0 255 0
-0.425601 0.535563 0.199326 0 255 0
0.080450 -0.445471 0.246747 127 127 0
-0.183543 -0.307354 0.165216 127 0 127
-0.125781 -0.719759 -0.215625 0 255 0
-0.457452 0.523876 -0.057005 0 255 0
-0.403218 0.190183 -0.215251 0 255 0
-0.395537 -0.313267 0.399280 204 51 127
0.004772 0.136687 -0.135384 0 255 0
-0.049735 0.063646 -0.347711 0 255 0
-0.345421 -0.307354 0.004459 127 0 127
-0.286354 0.239193 -0.476658 0 255 0
-0.257968 -0.812989 0.356259 0 255 0
0.102498 -0.255177 0.399323 0 0 255
-0.043584 -0.158459 0.401654 0 0 255
-0.020287 0.523876 -0.132857 0 255 0
-0.026325 -0.438897 -0.086836 127 127 0
0.067022 0.450835 0.361145 0 255 0
0.232654 -0.452953 0.351788 127 127 0
0.149264 0.136687 0.140479 0 255 0
0.449449 0.036655 -0.310641 0 255 0
0.351873 -0.056576 -0.072505 0 255 0
-0.282218 -0.334224 0.399323 0 0 255
0.415304 -0.297679 0.042259 0 255 0
-0.159341 -0.789355 -0.476658 0 255 0
0.457308 -0.812989 0.165630 0 255 0
0.309382 0.304989 -0.048200 0 255 0
-0.476259 -0.768317 -0.408464 0 255 0
0.371641 0.119898 0.403942 153 76 0
-0.255597 0.535563 0.308805 0 255 0
-0.466934 0.646017 0.229428 0 255 0
0.354034 -0.812989 0.166459 0 255 0
0.250166 0.313294 0.142185 0 255 0
0.139900 0.063646 0.030333 0 255 0
-0.142324 0.619727 -0.476658 0 255 0
0.001803 0.655981 -0.225211 0 255 0
0.508534 0.076328 -0.034649 0 255 0
-0.287245 0.535563 -0.120566 0 255 0
-0.202183 0.608604 -0.315867 0 255 0
-0.476259 0.275045 -0.378334 0 255 0
0.087513 -0.315659 0.091667 127 0 127
-0.085793 -0.493168 0.401654 0 0 255
-0.348650 0.218233 -0.415882 0 255 0
0.003044 0.450835 -0.158378 0 255 0
0.171690 0.729022 0.349616 0 255 0
0.229513 0.063646 0.203430 0 255 0
-0.391750 0.063646 0.292692 0 255 0
0.139483 0.136687 0.342527 0 255 0
0.415304 -0.554738 0.235833 0 255 0
0.502661 0.523876 -0.436643 0 255 0
0.099185 0.535563 -0.135425 0 255 0
0.177954 0.450835 0.340266 0 255 0
-0.124619 0.535563 -0.009269 0 255 0
-0.421675 -0.756698 -0.476658 0 255 0
0.016145 -0.120662 -0.476658 0 255 0
0.003416 0.608604 0.039520 0 255 0
-0.297784 -0.017633 0.403942 204 51 127
-0.476259 -0.474235 -0.445553 0 255 0
0.349099 -0.056576 0.084491 0 255 0
-0.092972 0.608604 -0.062499 0 255 0
0.306123 0.729022 0.272794 0 255 0
0.508534 -0.354081 -0.105512 0 255 0
0.395241 0.305042 0.268747 0 255 0
0.292705 -0.313148 0.401654 0 0 255
-0.142820 0.322207 -0.476658 0 255 0
0.508534 -0.720656 0.129074 0 255 0
0.167375 -0.316637 -0.476658 0 255 0
-0.476259 -0.120311 0.095352 0 255 0
-0.035049 0.269627 -0.415882 0 255 0
-0.483481 -0.372596 0.400148 204 51 127
0.508534 -0.043957 0.304638 0 255 0
-0.410065 -0.056498 -0.476658 0 255 0
-0.308937 0.450835 -0.160328 0 255 0
-0.013036 0.302637 0.260460 0 255 0
0.508534 0.249294 0.107266 0 255 0
0.390538 0.413230 -0.476658 0 255 0
0.117140 0.608604 -0.318179 0 255 0
-0.127268 -0.719759 0.024683 0 255 0
0.508534 -0.157526 -0.105812 0 255 0
0.266176 0.282670 0.399323 76 0 153
0.063482 0.655981 0.219432 0 255 0
-0.119217 0.156993 -0.476658 0 255 0
0.469259 0.036378 0.374054 153 76 0
-0.060970 0.729022 -0.256458 0 255 0
-0.025098 0.312740 -0.005637 0 255 0
-0.193813 0.722839 -0.476658 0 255 0
0.060840 0.637698 0.398389 76 0 153
0.135077 0.612021 -0.415882 0 255 0
0.310160 0.312173 0.229815 0 255 0
0.207270 0.063646 -0.388606 0 255 0
-0.157694 0.063646 -0.121235 0 255 0
0.148319 0.729022 0.102986 0 255 0
-0.476259 0.386530 -0.338326 0 255 0
0.387083 0.136687 0.148821 0 255 0
-0.194773 -0.508128 0.399323 0 0 255
-0.045255 0.036655 0.183392 0 255 0
0.069696 0.450835 0.092842 0 255 0
0.014479 0.036655 -0.058352 0 255 0
0.063296 -0.056576 -0.460625 0 255 0
0.281536 -0.812989 0.028769 0 255 0
-0.266362 0.608604 0.314475 0 255 0
-0.292810 0.523876 0.220768 0 255 0
0.366168 -0.056576 -0.460149 0 255 0
0.014703 0.087356 0.374396 0 255 0
0.508534 0.163598 -0.333453 0 255 0
0.258817 0.442232 0.440284 153 0 76
0.343651 -0.686703 0.403942 204 51 127
-0.378809 0.450835 0.157982 0 255 0
-0.476259 0.473122 0.257995 0 255 0
-0.145153 -0.812989 0.103445 0 255 0
0.246137 -0.438888 -0.000126 127 127 0
-0.289943 0.313294 -0.213685 0 255 0
-0.149529 0.136687 -0.047159 0 255 0
0.466388 -0.357419 -0.476658 0 255 0
-0.476259 -0.182317 0.241252 0 255 0
0.508534 -0.603019 -0.212520 0 255 0
0.112003 0.197619 0.401654 76 0 153
0.421829 0.608604 0.330409 0 255 0
-0.057787 0.535563 0.117510 0 255 0
0.008317 0.655981 -0.408376 0 255 0
-0.383028 -0.143134 -0.347126 0 255 0
-0.403218 0.337955 -0.083198 0 255 0
-0.383028 -0.361103 -0.182005 0 255 0
-0.368184 0.655981 0.238800 0 255 0
0.294240 -0.437166 -0.220245 127 127 0
-0.476259 0.035321 0.248371 0 255 0
0.508534 0.115049 0.266767 0 255 0
0.406696 0.450835 0.156478 0 255 0
0.020503 0.729022 -0.293720 0 255 0
0.042842 -0.594554 -0.481156 0 255 0
0.176888 0.036655 0.117970 0 255 0
-0.240319 0.272504 0.399323 76 0 153
-0.451811 0.255857 0.374396 0 255 0
-0.252118 -0.445471 0.091938 127 127 0
0.508534 -0.758263 0.291352 0 255 0
0.329800 0.729022 -0.422734 0 255 0
-0.025700 0.450835 0.332981 0 255 0
0.130668 -0.056576 -0.272011 0 255 0
0.196789 0.067036 0.389174 153 76 0
0.059435 0.063646 -0.306098 0 255 0
-0.420450 0.729022 -0.435638 0 255 0
0.447785 -0.445375 0.355187 127 127 0
0.003873 0.729022 -0.156092 0 255 0
-0.401178 0.608604 0.305102 0 255 0
-0.418564 0.535563 0.303129 0 255 0
-0.419921 -0.317397 0.337696 127 0 127
0.478267 0.577720 0.404546 0 255 0
0.255589 0.652207 -0.415882 0 255 0
-0.020070 0.063646 -0.204488 0 255 0
-0.278900 0.608604 -0.024215 0 255 0
-0.095961 0.655981 -0.239962 0 255 0
0.052819 0.535563 0.264471 0 255 0
0.421680 -0.337745 0.399280 204 51 127
-0.197599 -0.151508 -0.481156 0 255 0
-0.403218 0.252411 -0.132478 0 255 0
-0.383311 0.420947 -0.476658 0 255 0
-0.308060 0.729022 0.129849 0 255 0
0.415304 -0.204694 0.077739 0 255 0
-0.476259 0.513258 0.154479 0 255 0
-0.061502 -0.784891 0.374396 0 255 0
0.508534 -0.538721 -0.360840 0 255 0
0.336909 -0.492323 -0.481156 0 255 0
-0.291874 -0.315659 -0.133752 127 0 127
0.169722 -0.812989 -0.223848 0 255 0
-0.476259 0.149411 0.262271 0 255 0
-0.078537 -0.019100 -0.476658 0 255 0
-0.302420 0.550869 -0.476658 0 255 0
-0.321005 0.729022 -0.361051 0 255 0
0.039874 -0.269319 -0.476658 0 255 0
-0.336586 -0.812989 -0.162260 0 255 0
-0.001236 -0.471489 0.401654 0 0 255
-0.476259 -0.759780 0.121910 0 255 0
0.302432 -0.812989 0.327212 0 255 0
0.273913 0.535563 0.117493 0 255 0
0.464781 0.535563 -0.314609 0 255 0
0.476745 -0.450609 -0.091462 127 127 0
0.043110 -0.719759 0.259220 0 255 0
0.427020 -0.427265 0.403942 204 51 127
0.394914 0.330792 -0.476658 0 255 0
-0.476259 0.073869 -0.022122 0 255 0
-0.343748 -0.312036 -0.058115 127 0 127
0.102072 -0.812989 -0.156742 0 255 0
0.305054 -0.607667 -0.476658 0 255 0
-0.265593 0.063646 0.359098 0 255 0
-0.375987 0.523876 0.104101 0 255 0
-0.274805 0.608604 0.161829 0 255 0
-0.019840 -0.719759 -0.102553 0 255 0
0.377851 0.729022 -0.272164 0 255 0
-0.186827 0.608604 -0.214253 0 255 0
0.388420 0.136687 -0.413418 0 255 0
-0.346910 0.325921 -0.280091 0 255 0
0.415304 -0.265179 0.359187 0 255 0
0.205495 0.729022 0.135769 0 255 0
-0.436717 0.477522 0.374396 0 255 0
-0.383028 -0.407876 0.102641 0 255 0
0.016831 0.655981 0.141409 0 255 0
0.159308 0.523876 -0.033630 0 255 0
-0.389838 0.729022 0.063629 0 255 0
0.216437 0.608604 -0.340246 0 255 0
-0.122120 -0.056576 -0.143559 0 255 0
-0.051828 0.036655 0.005759 0 255 0
-0.351371 0.608604 0.354946 0 255 0
-0.476259 -0.757391 0.219217 0 255 0
0.508534 -0.437043 -0.447742 0 255 0
-0.476259 -0.210304 -0.318956 0 255 0
0.199936 0.549369 -0.476658 0 255 0
0.315214 0.523876 -0.335671 0 255 0
0.458102 0.063646 -0.027766 0 255 0
0.092191 0.329968 -0.285460 0 255 0
0.319924 0.296363 0.344032 0 255 0
-0.184287 0.608604 0.255819 0 255 0
-0.476259 -0.639124 -0.426297 0 255 0
0.424431 0.402267 0.399280 153 76 0
0.229024 -0.056576 0.225026 0 255 0
-0.175154 0.063646 0.216630 0 255 0
-0.160037 -0.313104 -0.481156 0 255 0
0.353300 0.655981 -0.371064 0 255 0
0.508534 0.167849 0.039151 0 255 0
-0.347461 0.112262 0.374396 0 255 0
0.244522 0.523876 -0.325080 0 255 0
0.415304 -0.066306 -0.266924 0 255 0
0.201176 0.310650 0.229185 0 255 0
-0.476259 -0.644872 0.219994 0 255 0
0.191172 -0.418472 0.401654 0 0 255
-0.014232 0.335070 -0.415882 0 255 0
0.030155 0.313294 0.066787 0 255 0
-0.209852 -0.056576 0.198329 0 255 0
0.415304 -0.229104 0.124891 0 255 0
-0.354929 0.450835 -0.298567 0 255 0
0.299912 0.450835 0.294257 0 255 0
-0.383028 -0.458523 0.160567 0 255 0
0.037699 -0.308922 -0.254907 127 0 127
0.162471 0.729022 -0.014733 0 255 0
0.118762 0.535563 -0.374947 0 255 0
0.433851 0.655981 0.305272 0 255 0
0.160818 -0.812989 -0.063585 0 255 0
0.184658 0.655981 -0.406815 0 255 0
-0.047065 0.650410 -0.415882 0 255 0
-0.289256 -0.314860 0.160853 127 0 127
-0.071472 0.608604 0.271045 0 255 0
0.429084 0.608604 0.233563 0 255 0
-0.134400 -0.694284 0.399280 204 51 127
-0.476259 -0.337562 -0.374286 0 255 0
0.000575 -0.719759 0.284607 0 255 0
0.189233 -0.803805 -0.476658 0 255 0
-0.110710 0.535563 0.060202 0 255 0
0.415304 -0.147833 -0.311609 0 255 0
-0.257695 0.136687 -0.127673 0 255 0
-0.105312 0.450835 0.279819 0 255 0
-0.169699 -0.719759 0.247575 0 255 0
-0.382125 -0.719759 -0.323294 0 255 0
0.145451 -0.315659 -0.005837 127 0 127
0.264233 -0.812989 -0.106335 0 255 0
-0.369255 0.036655 -0.139348 0 255 0
-0.253226 -0.719759 0.183990 0 255 0
-0.432632 0.026104 -0.476658 0 255 0
-0.383028 -0.272370 -0.206162 0 255 0
0.435493 0.306853 0.104928 0 255 0
0.508534 -0.123399 0.112753 0 255 0
0.415304 -0.262867 -0.408173 0 255 0
-0.087135 -0.294826 -0.293879 127 0 127
0.508534 -0.101188 -0.377989 0 255 0
-0.419743 0.143190 0.374396 0 255 0
-0.032031 -0.056576 -0.444351 0 255 0
0.508534 0.431634 0.000961 0 255 0
-0.119272 0.136687 0.274787 0 255 0
0.499209 0.544985 -0.053610 0 255 0
0.361080 0.063646 0.213430 0 255 0
-0.372261 0.036655 0.192513 0 255 0
0.225628 0.136687 0.000690 0 255 0
-0.205012 0.450835 0.103667 0 255 0
0.411394 -0.056576 -0.141048 0 255 0
0.508534 -0.184285 -0.423238 0 255 0
-0.360535 0.655981 -0.212806 0 255 0
0.362205 -0.719759 -0.022399 0 255 0
0.435493 0.225901 0.053019 0 255 0
-0.343471 0.608604 0.060865 0 255 0
-0.383028 -0.540797 0.311945 0 255 0
0.062092 0.523876 -0.318371 0 255 0
-0.476259 -0.169049 0.324983 0 255 0
-0.370118 0.060109 0.376663 153 76 0
0.041891 0.655981 -0.117438 0 255 0
-0.476259 -0.541092 0.265746 0 255 0
-0.222217 0.115427 0.403942 153 76 0
0.508534 -0.620594 -0.309427 0 255 0
-0.274128 -0.056576 -0.153270 0 255 0
-0.034296 0.608604 0.176059 0 255 0
0.003725 -0.812989 -0.127365 0 255 0
0.388636 0.431551 0.438530 153 0 76
-0.476259 0.364812 0.235854 0 255 0
-0.190562 0.621062 0.372796 0 255 0
-0.114051 0.554369 0.372799 0 255 0
0.206446 0.356862 0.401654 76 0 153
0.054827 -0.533029 0.401654 0 0 255
0.179453 0.729022 -0.090995 0 255 0
0.508534 -0.640963 -0.443136 0 255 0
-0.160232 0.063646 -0.192948 0 255 0
0.001935 0.535563 0.032128 0 255 0
-0.020809 -0.812989 0.341305 0 255 0
0.271717 0.120431 0.409556 153 76 0
0.301086 0.535563 0.264516 0 255 0
0.140272 0.437850 -0.476658 0 255 0
-0.403218 0.428124 -0.185674 0 255 0
0.088746 -0.307354 0.264642 127 0 127
-0.403218 0.653187 0.049214 0 255 0
0.158455 0.660246 0.372796 0 255 0
0.383112 -0.093442 0.403942 204 51 127
0.255896 0.036655 -0.125487 0 255 0
-0.476259 0.130724 -0.149677 0 255 0
0.100202 0.063646 -0.410995 0 255 0
0.396183 0.655981 -0.095079 0 255 0
-0.476259 0.432377 0.300758 0 255 0
0.468686 -0.077265 0.420420 255 0 0
-0.421873 -0.812989 0.193347 0 255 0
0.022262 0.063646 0.121347 0 255 0
-0.359310 0.729022 -0.106862 0 255 0
0.402917 0.729022 0.131465 0 255 0
0.221125 0.608604 0.372861 0 255 0
0.069704 0.136687 -0.062195 0 255 0
0.271835 -0.812989 0.083563 0 255 0
0.243288 0.608604 0.197366 0 255 0
0.106422 -0.056576 -0.025119 0 255 0
-0.192281 0.535563 -0.126150 0 255 0
0.116808 0.295882 0.346394 0 255 0
-0.229572 0.655981 -0.083640 0 255 0
-0.164166 0.762025 0.401274 0 255 0
-0.057823 0.655981 -0.118410 0 255 0
0.138379 0.305342 -0.003980 0 255 0
-0.383028 -0.606837 0.184412 0 255 0
0.415304 -0.109061 -0.420027 0 255 0
0.067449 0.303372 0.348645 0 255 0
0.384827 0.608604 -0.359331 0 255 0
0.382069 -0.719759 -0.425579 0 255 0
-0.101226 0.017268 0.374396 0 255 0
0.508534 -0.722705 -0.418291 0 255 0
0.410499 0.344808 0.403942 153 76 0
-0.152540 0.036655 0.006816 0 255 0
-0.120711 0.608604 -0.404140 0 255 0
-0.476259 -0.418966 -0.340529 0 255 0
-0.246549 -0.445471 -0.026754 127 127 0
0.485254 0.440822 -0.476658 0 255 0
0.069039 -0.467251 0.399323 0 0 255
-0.340203 0.608604 -0.409919 0 255 0
-0.476259 -0.050957 -0.292546 0 255 0
-0.325814 0.655981 -0.055835 0 255 0
-0.190189 -0.079360 0.457895 255 0 0
-0.079824 0.063646 -0.264268 0 255 0
0.385415 0.655981 -0.201625 0 255 0
-0.349199 0.535563 0.278151 0 255 0
-0.156426 0.063646 -0.263566 0 255 0
-0.483481 -0.427328 0.363224 0 255 0
-0.466934 0.563314 -0.347804 0 255 0
0.401474 0.136687 0.207171 0 255 0
0.150172 -0.719759 0.290425 0 255 0
0.262904 0.729022 0.247471 0 255 0
-0.301840 0.410092 0.401654 76 0 153
0.409168 -0.812989 -0.261941 0 255 0
-0.476259 -0.247426 0.032141 0 255 0
0.263745 -0.619285 0.399323 0 0 255
0.229897 -0.699934 -0.481156 0 255 0
0.508534 -0.319471 0.080967 0 255 0
0.508534 -0.430400 -0.317935 0 255 0
-0.476259 -0.478665 -0.265559 0 255 0
-0.452854 0.523876 0.343225 0 255 0
0.132584 0.063646 -0.341437 0 255 0
-0.403218 0.350452 0.354022 0 255 0
0.508534 -0.413147 0.152103 0 255 0
0.508534 -0.757375 -0.122711 0 255 0
-0.405023 -0.812989 0.097282 0 255 0
-0.466934 0.658841 -0.423280 0 255 0
0.273600 0.136687 0.364419 0 255 0
-0.351809 0.450404 -0.415882 0 255 0
0.435493 0.298956 0.228621 0 255 0
0.292251 0.126569 -0.476658 0 255 0
-0.081710 0.425613 0.399280 153 76 0
0.435493 0.422167 -0.185265 0 255 0
0.015854 0.136687 0.105969 0 255 0
-0.354728 0.691420 -0.476658 0 255 0
0.380947 0.036655 0.329552 0 255 0
-0.343748 -0.310948 0.249896 127 0 127
-0.403218 0.610339 0.119541 0 255 0
-0.255640 0.291002 -0.415882 0 255 0
0.020282 -0.812989 0.058419 0 255 0
0.152884 0.136687 -0.360404 0 255 0
0.228986 0.305042 -0.185926 0 255 0
-0.209997 0.032142 -0.476658 0 255 0
0.025513 0.655981 0.188445 0 255 0
-0.286787 -0.056576 0.181143 0 255 0
-0.211036 -0.440428 0.401654 0 0 255
-0.476259 -0.054085 -0.020698 0 255 0
0.430657 -0.391543 -0.476658 0 255 0
0.424759 0.729022 -0.262872 0 255 0
-0.400387 -0.082499 0.374396 0 255 0
0.153086 0.729022 0.152871 0 255 0
-0.145797 -0.509780 -0.476658 0 255 0
0.124758 -0.812989 0.081747 0 255 0
0.102516 -0.719759 -0.280519 0 255 0
0.432703 -0.729875 0.374396 0 255 0
0.415304 -0.522394 0.372582 0 255 0
0.136756 0.655981 0.306757 0 255 0
-0.466934 0.624263 0.000508 0 255 0
0.329325 0.256403 0.401654 76 0 153
-0.368439 0.608604 -0.261308 0 255 0
0.408173 0.136687 -0.237273 0 255 0
-0.476259 -0.100100 0.268328 0 255 0
0.337948 -0.812989 -0.409727 0 255 0
-0.476259 -0.695148 -0.468026 0 255 0
0.207366 -0.719759 0.125220 0 255 0
-0.480793 -0.129819 0.366618 0 255 0
0.435493 0.203155 -0.201577 0 255 0
0.508534 0.254334 -0.328920 0 255 0
0.416402 0.450835 -0.325686 0 255 0
-0.016698 0.394133 -0.476658 0 255 0
-0.345144 -0.719759 -0.092080 0 255 0
-0.236746 -0.558410 0.399323 0 0 255
0.508534 -0.503014 -0.476544 0 255 0
0.508534 -0.264958 0.303513 0 255 0
-0.017229 -0.719759 -0.363542 0 255 0
0.374850 -0.719759 -0.185910 0 255 0
-0.476259 -0.751181 -0.310580 0 255 0
-0.307946 0.063646 -0.047430 0 255 0
0.074955 0.608604 0.037801 0 255 0
-0.329635 0.729022 -0.302884 0 255 0
0.087584 0.313294 -0.037908 0 255 0
0.412117 -0.719759 0.091876 0 255 0
0.415304 -0.682740 -0.356779 0 255 0
0.310161 -0.303381 -0.248901 127 0 127
0.216403 -0.056576 0.175022 0 255 0
0.508534 -0.605734 0.210800 0 255 0
0.282876 -0.719759 -0.251528 0 255 0
-0.024617 -0.806053 0.395750 204 51 127
-0.454424 0.729022 -0.129189 0 255 0
-0.064056 0.608604 0.138729 0 255 0
0.435493 0.188376 -0.000767 0 255 0
-0.123058 0.450835 -0.161689 0 255 0
-0.023051 0.450835 -0.059428 0 255 0
0.508534 -0.709078 0.189568 0 255 0
0.058269 0.036655 -0.463668 0 255 0
-0.442298 0.063646 -0.109156 0 255 0
0.483060 -0.371215 0.403942 204 51 127
0.155926 -0.677341 -0.476658 0 255 0
-0.188576 -0.309845 -0.133425 127 0 127
0.337451 0.729022 -0.039791 0 255 0
0.465859 0.405568 0.374396 0 255 0
-0.383028 -0.341808 0.223434 0 255 0
0.240201 0.655981 0.336577 0 255 0
0.343978 0.608604 0.139261 0 255 0
0.141399 0.063646 -0.214452 0 255 0
-0.129123 -0.255161 0.401654 0 0 255
-0.395352 0.036655 -0.445963 0 255 0
0.454665 0.310011 0.374396 0 255 0
0.010198 0.535563 0.289302 0 255 0
-0.045707 0.136687 -0.018918 0 255 0
-0.087333 -0.056576 0.219789 0 255 0
-0.135310 -0.443068 0.134833 127 127 0
-0.239674 0.523886 0.403268 153 76 0
-0.201949 0.655981 -0.227993 0 255 0
0.003661 -0.728814 0.374396 0 255 0
0.145301 0.655981 0.160537 0 255 0
-0.425791 -0.445552 -0.146433 127 127 0
0.435493 0.380113 0.022528 0 255 0
0.012088 0.608604 -0.157472 0 255 0
0.374725 0.036655 -0.037564 0 255 0
0.320849 0.136687 0.027832 0 255 0
-0.476259 -0.676638 -0.247712 0 255 0
-0.261734 0.655981 0.364314 0 255 0
0.435493 0.342654 0.171682 0 255 0
-0.056542 -0.719759 0.212662 0 255 0
-0.383028 -0.690661 -0.015907 0 255 0
0.190572 -0.719759 -0.377336 0 255 0
-0.403218 0.304564 -0.409830 0 255 0
-0.088826 0.104075 0.399280 153 76 0
-0.408481 -0.213722 0.399323 0 0 255
0.446845 0.036655 -0.447284 0 255 0
0.247200 0.535563 0.192680 0 255 0
0.415304 -0.095214 0.365455 0 255 0
0.190726 0.063646 -0.188805 0 255 0
-0.375394 0.535563 -0.336359 0 255 0
0.499209 0.692028 -0.215130 0 255 0
0.508534 0.068965 -0.339683 0 255 0
0.326274 0.063646 -0.243267 0 255 0
0.508534 0.486850 -0.133206 0 255 0
-0.322805 0.136687 -0.115735 0 255 0
0.421678 0.729022 -0.463979 0 255 0
0.290116 0.523876 -0.257296 0 255 0
-0.048964 -0.445564 0.355588 127 127 0
0.190911 -0.812989 0.216920 0 255 0
-0.223633 -0.732662 0.374396 0 255 0
-0.344857 0.136687 0.158779 0 255 0
-0.383028 -0.117159 -0.253845 0 255 0
0.508534 -0.679884 -0.345003 0 255 0
-0.476259 0.295527 0.285966 0 255 0
0.189991 -0.056576 0.001942 0 255 0
0.508534 -0.632442 -0.135536 0 255 0
-0.403218 0.163752 0.283680 0 255 0
-0.389692 0.535563 -0.067740 0 255 0
0.116293 0.655981 -0.349737 0 255 0
0.360717 -0.056576 -0.350999 0 255 0
0.415304 -0.189375 0.272739 0 255 0
0.415304 -0.492547 -0.445816 0 255 0
0.355851 0.418897 -0.415882 0 255 0
0.238915 0.535563 -0.117651 0 255 0
-0.436359 0.036655 -0.307848 0 255 0
-0.383028 -0.671426 0.248395 0 255 0
0.415304 -0.584325 -0.389491 0 255 0
0.415304 -0.194332 0.335554 0 255 0
-0.477686 0.017898 0.335574 0 255 0
0.508534 0.296684 -0.298200 0 255 0
-0.386533 0.136687 -0.092252 0 255 0
-0.460492 -0.530907 -0.476658 0 255 0
-0.343590 -0.812989 0.287598 0 255 0
-0.466934 0.587077 0.215307 0 255 0
-0.353280 -0.438111 -0.078307 127 127 0
0.114215 -0.166017 0.401654 0 0 255
0.235770 0.655981 -0.275248 0 255 0
-0.476259 -0.512205 0.302876 0 255 0
0.113545 -0.719759 -0.187539 0 255 0
0.149108 -0.812989 0.340073 0 255 0
0.276336 0.063646 0.312978 0 255 0
-0.078126 0.313294 -0.136277 0 255 0
0.424556 0.450835 -0.077974 0 255 0
0.393509 -0.812989 0.238852 0 255 0
0.423380 0.036655 0.010406 0 255 0
-0.345389 -0.730119 0.403942 204 51 127
-0.078776 -0.333865 0.399323 0 0 255
0.117882 0.450835 0.154722 0 255 0
0.508534 0.253212 0.373946 0 255 0
-0.383028 -0.284345 -0.126283 0 255 0
-0.383028 -0.506871 0.234543 0 255 0
0.432049 0.186628 -0.415882 0 255 0
-0.077322 0.608604 -0.127225 0 255 0
-0.217018 0.031653 0.403942 204 51 127
0.097503 -0.609379 -0.481156 0 255 0
-0.232425 -0.038700 0.403942 204 51 127
-0.031783 -0.729814 -0.476658 0 255 0
0.508534 0.465856 0.282496 0 255 0
-0.001997 -0.682467 -0.476658 0 255 0
-0.403218 0.223224 -0.334153 0 255 0
0.395235 0.554959 0.374396 0 255 0
-0.184449 -0.719759 0.111214 0 255 0
0.508534 -0.759797 0.027694 0 255 0
0.169307 0.036655 0.005770 0 255 0
-0.476259 -0.804387 -0.068664 0 255 0
0.135570 -0.056576 0.054972 0 255 0
-0.476259 0.110741 -0.304230 0 255 0
0.106860 0.136687 -0.117648 0 255 0
-0.204535 0.617586 -0.476658 0 255 0
-0.457550 -0.086863 -0.476658 0 255 0
0.515856 -0.715421 0.362795 0 255 0
0.314861 0.522544 -0.476658 0 255 0
0.415304 -0.429004 -0.451045 0 255 0
0.250997 0.340323 0.401654 76 0 153
0.108348 0.104212 0.399280 153 76 0
0.060095 0.405155 -0.415882 0 255 0
0.435493 0.361985 -0.104526 0 255 0
0.350365 0.688791 -0.476658 0 255 0
0.508534 0.267698 0.262389 0 255 0
-0.383028 -0.113228 0.220926 0 255 0
0.508534 -0.586573 -0.074280 0 255 0
0.508534 0.339691 -0.009335 0 255 0
0.089354 0.464358 0.403942 153 76 0
0.508534 -0.315781 -0.441686 0 255 0
-0.246791 -0.056576 -0.017694 0 255 0
-0.316251 0.036655 -0.348319 0 255 0
0.361199 0.136687 -0.046380 0 255 0
0.415304 -0.448693 -0.363515 0 255 0
-0.260968 -0.719759 -0.423370 0 255 0
-0.184500 -0.056576 0.336966 0 255 0
0.074355 -0.441423 0.199856 127 127 0
-0.441022 0.413970 0.403942 153 76 0
-0.066903 0.136687 -0.247154 0 255 0
-0.446077 -0.812989 0.285840 0 255 0
-0.373441 -0.812989 -0.323486 0 255 0
-0.118791 0.523876 -0.137344 0 255 0
-0.403218 0.228128 -0.387921 0 255 0
0.486642 0.036655 -0.129272 0 255 0
0.498424 -0.812989 -0.332621 0 255 0
-0.383028 -0.403523 -0.048614 0 255 0
-0.357336 -0.598505 -0.476658 0 255 0
-0.476189 -0.812990 0.378329 204 51 127
0.290672 0.063646 0.188451 0 255 0
0.219336 0.036655 -0.252737 0 255 0
0.076652 -0.719759 0.091396 0 255 0
-0.281634 0.368155 0.401654 76 0 153
0.342056 0.408798 -0.476658 0 255 0
-0.074692 0.063646 -0.475619 0 255 0
-0.076170 -0.287010 -0.481156 0 255 0
-0.476259 -0.582545 -0.140213 0 255 0
0.394286 0.715294 0.374396 0 255 0
0.273395 0.535563 0.339834 0 255 0
0.383088 0.036655 0.176699 0 255 0
0.325827 0.729022 -0.121361 0 255 0
0.029537 0.304989 -0.113754 0 255 0
-0.062952 0.450110 -0.415882 0 255 0
0.508534 -0.350955 0.144092 0 255 0
-0.476259 0.326385 0.196560 0 255 0
-0.129832 0.729022 -0.149003 0 255 0
-0.084802 0.036655 -0.157598 0 255 0
-0.383028 -0.558199 0.009447 0 255 0
0.191644 -0.438309 0.225536 127 127 0
-0.187778 -0.813018 0.389076 204 51 127
0.045998 0.136687 -0.249705 0 255 0
0.508534 0.068936 0.192334 0 255 0
-0.343748 -0.307649 0.296179 127 0 127
0.218265 0.063646 -0.082624 0 255 0
-0.052182 0.036655 0.321831 0 255 0
-0.399702 0.063646 -0.235755 0 255 0
0.488863 -0.812989 -0.174736 0 255 0
0.406472 -0.056576 0.131090 0 255 0
-0.079517 -0.719759 -0.252948 0 255 0
-0.476259 0.324211 -0.109026 0 255 0
0.295746 0.450835 -0.033461 0 255 0
-0.075289 0.136687 0.078442 0 255 0
0.342768 0.729022 0.169998 0 255 0
-0.223915 0.384356 -0.476658 0 255 0
-0.389699 0.535563 0.245225 0 255 0
-0.020861 0.036655 0.222786 0 255 0
0.378830 -0.056576 -0.032767 0 255 0
0.508534 0.256866 -0.064930 0 255 0
-0.018100 0.216381 -0.415882 0 255 0
-0.383028 -0.707458 0.185072 0 255 0
0.231086 -0.056576 -0.156141 0 255 0
-0.310807 -0.524334 0.399323 0 0 255
0.277343 0.717169 0.372796 0 255 0
-0.483481 0.224438 0.386746 153 76 0
0.244669 -0.445471 -0.070504 127 127 0
0.430558 -0.812989 0.304654 0 255 0
-0.052798 -0.513889 -0.476658 0 255 0
-0.476259 0.142718 0.043399 0 255 0
-0.414829 -0.315164 -0.062136 127 0 127
0.474624 -0.445874 0.133984 127 127 0
-0.134083 0.308812 0.214635 0 255 0
0.146639 -0.719759 -0.362893 0 255 0
0.046637 -0.181310 -0.476658 0 255 0
0.437119 0.523876 0.293064 0 255 0
0.508534 -0.628497 -0.384474 0 255 0
0.508534 0.138892 -0.409407 0 255 0
0.302996 0.036655 -0.397843 0 255 0
-0.003461 -0.056576 0.161331 0 255 0
0.188550 0.170646 0.399280 153 76 0
0.508534 0.415865 0.354735 0 255 0
-0.146687 0.036655 0.095060 0 255 0
-0.476259 -0.359326 -0.145354 0 255 0
0.508534 -0.223215 0.194915 0 255 0
0.023833 -0.300205 0.399323 0 0 255
-0.356623 -0.056576 -0.467902 0 255 0
0.466658 -0.065718 -0.476658 0 255 0
-0.437703 -0.543359 0.374396 0 255 0
0.480520 0.672444 0.372796 0 255 0
-0.383028 -0.627604 0.229426 0 255 0
0.306826 0.304989 0.053188 0 255 0
-0.377726 -0.056576 0.285686 0 255 0
0.381760 0.063646 -0.354687 0 255 0
-0.353523 -0.047906 0.374396 0 255 0
0.308701 0.316446 -0.246669 0 255 0
0.508534 0.217162 -0.427458 0 255 0
0.006167 -0.025309 -0.476658 0 255 0
0.241219 0.063646 -0.322295 0 255 0
0.041140 -0.076472 0.403942 204 51 127
0.191644 -0.439651 -0.242373 127 127 0
-0.097564 -0.812989 -0.275781 0 255 0
0.508534 -0.014238 0.002280 0 255 0
0.284914 0.729022 0.089725 0 255 0
0.415304 -0.472336 -0.035613 0 255 0
-0.308566 0.608604 -0.161944 0 255 0
0.324657 0.535563 0.196468 0 255 0
0.415304 -0.338959 0.205026 0 255 0
-0.466934 0.712458 0.360996 0 255 0
-0.383028 -0.480605 -0.211696 0 255 0
-0.297377 -0.719759 -0.336093 0 255 0
0.170897 0.336626 -0.415882 0 255 0
-0.476259 -0.160164 -0.120166 0 255 0
-0.292785 0.729022 -0.050613 0 255 0
-0.329263 0.535563 0.156748 0 255 0
0.225197 -0.812989 -0.338306 0 255 0
-0.006688 0.000375 0.403942 204 51 127
-0.476259 0.072838 -0.139337 0 255 0
0.465956 0.063646 -0.359781 0 255 0
-0.281137 -0.812989 -0.069299 0 255 0
0.314781 0.193786 0.401654 76 0 153
0.177461 0.729022 -0.188054 0 255 0
-0.202093 0.523876 0.106445 0 255 0
-0.383028 -0.276002 0.000712 0 255 0
-0.429089 -0.812989 -0.185363 0 255 0
0.508534 -0.736570 -0.295995 0 255 0
0.031389 -0.812989 -0.428933 0 255 0
-0.141995 0.729022 -0.072753 0 255 0
-0.473374 0.063646 -0.304475 0 255 0
-0.266270 0.450835 0.094399 0 255 0
0.468390 0.203600 0.374396 0 255 0
0.310391 0.729022 -0.228482 0 255 0
0.508534 -0.122876 0.350362 0 255 0
0.232688 -0.719759 -0.082211 0 255 0
0.499209 0.592796 -0.332953 0 255 0
-0.476259 -0.104340 -0.314474 0 255 0
0.475970 -0.323485 0.260460 127 0 127
0.410841 -0.314728 0.294810 127 0 127
0.486045 -0.528358 0.374396 0 255 0
-0.439372 0.067098 0.383886 153 76 0
0.254544 -0.139702 -0.476658 0 255 0
-0.042626 0.535563 0.325699 0 255 0
-0.302657 0.121951 0.374396 0 255 0
-0.257339 -0.411866 -0.476658 0 255 0
0.170295 0.729022 0.299967 0 255 0
-0.220251 -0.056576 -0.262228 0 255 0
-0.068596 0.655981 0.000275 0 255 0
0.086953 0.397022 -0.476658 0 255 0
0.508534 -0.168086 0.160871 0 255 0
-0.346880 0.304989 0.061482 0 255 0
-0.382747 -0.220053 -0.481156 0 255 0
0.023215 -0.461340 -0.481156 0 255 0
-0.177647 0.036655 -0.398063 0 255 0
-0.476259 0.191586 -0.445736 0 255 0
-0.134083 -0.312275 0.213290 127 0 127
0.373374 0.123054 -0.476658 0 255 0
0.508534 -0.503174 -0.167778 0 255 0
-0.187940 0.295738 0.354299 0 255 0
0.235959 0.136687 0.093103 0 255 0
0.109286 0.655981 0.215345 0 255 0
0.415304 -0.431262 -0.144294 0 255 0
0.508534 0.365621 -0.142472 0 255 0
0.508534 0.144614 -0.222915 0 255 0
0.468533 0.748118 0.372803 0 255 0
-0.297629 -0.812989 0.228273 0 255 0
