ply
format ascii 1.0
element vertex 1275
property float x
property float y
property float z
property uchar red
property uchar green
property uchar blue
end_header
0.499237 -0.065161 -0.131449 76 0 153
-0.208024 -0.174125 0.726923 255 0 0
-0.150722 -0.174699 -0.041102 255 0 0
0.629798 -0.117540 0.725413 255 0 0
-0.211848 -0.123828 -0.106162 255 0 0
0.477838 -0.119996 0.732752 255 0 0
0.283271 -0.174699 0.021526 255 0 0
0.487842 -0.174699 0.375806 255 0 0
-0.437014 0.302034 -0.535465 76 0 153
0.471802 0.412884 -0.608624 153 0 76
-0.445178 0.010519 -0.243950 76 0 153
-0.095270 -0.174699 0.433575 255 0 0
-0.464201 -0.116524 0.676005 255 0 0
-0.325938 0.145683 -0.340877 153 0 76
-0.490162 -0.174646 -0.091364 255 0 0
0.606417 -0.161507 0.513105 255 0 0
0.264367 -0.174699 0.135054 255 0 0
-0.420885 -0.174699 0.474334 255 0 0
-0.090937 -0.115524 -0.058274 255 0 0
0.358157 0.203127 -0.436559 76 0 153
0.576843 -0.137171 -0.078315 127 0 127
0.253921 0.042618 -0.237813 153 0 76
0.535316 0.266138 -0.499569 76 0 153
0.390135 -0.116192 0.698884 255 0 0
-0.468160 -0.174699 -0.063562 255 0 0
-0.134435 0.365041 -0.598472 76 0 153
-0.308950 0.253997 -0.450606 153 0 76
-0.141805 0.020317 -0.253748 76 0 153
-0.603988 0.137759 -0.371190 76 0 153
0.601674 -0.156428 0.361374 255 0 0
-0.312278 -0.106691 0.184343 204 51 127
0.084776 -0.174699 0.073618 255 0 0
0.637374 -0.136820 0.300879 255 0 0
-0.506813 -0.115319 0.081853 255 0 0
-0.247465 0.033415 -0.228610 153 0 76
0.476243 -0.126341 -0.073401 127 0 127
0.304165 -0.174699 0.461101 255 0 0
0.362624 -0.089375 -0.087115 127 0 127
-0.059405 0.058763 -0.292195 76 0 153
0.584752 -0.161581 0.536002 255 0 0
-0.616217 -0.118310 0.593774 255 0 0
0.475688 0.446562 -0.679993 76 0 153
-0.009720 -0.120279 0.710052 255 0 0
0.118475 -0.115635 0.681296 0 127 127
-0.164928 -0.115524 -0.045884 255 0 0
-0.272284 -0.106663 0.128000 204 51 127
0.108672 -0.115789 -0.061965 255 0 0
-0.359911 -0.174699 -0.067771 255 0 0
0.124421 -0.174699 0.361348 255 0 0
0.495566 0.048832 -0.282264 76 0 153
0.125719 -0.174699 0.194256 255 0 0
0.305609 0.045632 -0.279064 76 0 153
-0.206747 0.366586 -0.561781 153 0 76
-0.417129 -0.099124 -0.077631 127 0 127
-0.590151 -0.116043 0.602298 255 0 0
0.214649 0.081159 -0.314590 76 0 153
0.513028 -0.174698 0.074308 255 0 0
-0.418697 0.035127 -0.230322 153 0 76
0.091565 0.175612 -0.409044 76 0 153
-0.161365 -0.115705 0.593869 255 0 0
-0.142434 -0.115524 -0.042240 255 0 0
-0.515871 -0.174699 0.256964 255 0 0
-0.154099 -0.106900 0.137260 204 51 127
0.157049 -0.106658 0.321106 204 51 127
-0.612304 0.004199 -0.237582 76 0 153
-0.300506 -0.174699 0.151743 255 0 0
0.246132 -0.106685 0.315105 204 51 127
-0.028686 0.280774 -0.514206 76 0 153
0.078719 -0.174430 -0.098400 255 0 0
-0.145240 -0.112678 -0.138994 127 0 127
0.255329 -0.106677 0.368391 204 51 127
0.024396 -0.106825 0.222635 204 51 127
0.189296 0.024528 -0.219723 153 0 76
0.517142 0.129563 -0.362994 76 0 153
-0.261421 -0.032890 -0.200542 76 0 153
0.229789 -0.105595 -0.127837 76 0 153
0.263068 -0.106813 0.134703 204 51 127
-0.309370 0.449764 -0.644958 76 0 153
0.199641 -0.091803 -0.127594 127 0 127
0.251299 -0.106934 0.291033 204 51 127
-0.373595 -0.116524 0.011013 255 0 0
0.007394 -0.116043 -0.139247 127 0 127
0.187617 0.351417 -0.584848 76 0 153
0.142239 -0.115957 0.010492 255 0 0
-0.422356 0.107590 -0.302785 153 0 76
0.627544 -0.116458 0.157234 255 0 0
0.305841 -0.052047 -0.181385 76 0 153
-0.000417 0.131528 -0.326723 153 0 76
0.387731 -0.174699 -0.073135 255 0 0
0.306288 -0.174699 0.399769 255 0 0
-0.338411 0.043805 -0.277237 76 0 153
0.166560 -0.174699 -0.031678 255 0 0
-0.600899 0.098228 -0.294026 76 0 153
-0.621617 -0.163947 0.423164 255 0 0
0.222076 -0.174699 -0.061960 255 0 0
-0.042648 -0.174699 0.479667 255 0 0
0.463492 0.168950 -0.365559 153 0 76
0.017146 0.363281 -0.559442 153 0 76
0.012983 -0.152045 0.734528 255 0 0
0.383500 0.013366 -0.246797 76 0 153
0.417738 -0.106658 0.170199 204 51 127
0.342600 -0.087204 -0.146227 76 0 153
-0.471216 -0.143857 -0.084802 127 0 127
0.161893 0.160395 -0.356134 153 0 76
0.232418 -0.174699 0.472297 255 0 0
0.362613 -0.003218 -0.230214 76 0 153
-0.601137 -0.174384 0.726059 255 0 0
-0.620663 -0.150920 -0.106043 127 0 127
0.414453 0.436691 -0.670123 76 0 153
-0.379332 0.097379 -0.330811 76 0 153
-0.427881 0.323702 -0.520311 153 0 76
0.080067 -0.107122 0.220238 204 51 127
0.087888 -0.174696 0.711753 255 0 0
-0.242552 0.396510 -0.591705 153 0 76
-0.402243 0.222336 -0.455767 76 0 153
-0.540130 -0.127197 -0.073603 127 0 127
-0.557993 -0.070959 -0.162473 76 0 153
-0.549192 -0.116524 -0.022798 255 0 0
0.120731 -0.106719 0.269794 204 51 127
0.238144 -0.057027 -0.176404 76 0 153
0.397625 0.215323 -0.448754 76 0 153
-0.026461 -0.174699 -0.055072 255 0 0
0.214078 -0.174699 0.363398 255 0 0
0.058634 -0.120505 0.710141 255 0 0
0.048132 -0.174699 0.602296 255 0 0
-0.168389 -0.174699 0.619244 255 0 0
-0.024084 -0.114750 0.462635 255 0 0
-0.368403 -0.106660 0.132887 204 51 127
0.201422 -0.117265 0.591012 255 0 0
0.575894 -0.174699 0.546731 255 0 0
-0.583902 -0.174699 0.427199 255 0 0
0.124629 -0.174699 0.481274 255 0 0
0.328010 -0.174699 0.227894 255 0 0
0.614193 -0.139981 0.362455 255 0 0
-0.265983 0.115298 -0.348730 76 0 153
-0.467529 -0.163028 -0.107340 255 0 0
-0.363900 0.469375 -0.664569 76 0 153
0.320433 -0.029293 -0.204139 76 0 153
-0.249157 0.321783 -0.517197 153 0 76
0.573292 0.030153 -0.226178 153 0 76
0.511849 -0.174699 0.355134 255 0 0
0.329127 0.414250 -0.647681 76 0 153
-0.183935 -0.115524 0.517477 255 0 0
0.262372 0.321622 -0.555054 76 0 153
0.256869 0.201082 -0.434514 76 0 153
-0.416573 0.484663 -0.700359 76 0 153
-0.196061 0.302952 -0.536384 76 0 153
0.575038 -0.174699 0.064210 255 0 0
0.091427 -0.107275 0.419551 204 51 127
-0.308373 -0.174699 0.167424 255 0 0
0.485387 0.098567 -0.295176 153 0 76
0.077322 -0.174699 0.504948 255 0 0
0.275518 0.154055 -0.350665 153 0 76
0.298880 0.288653 -0.483847 153 0 76
0.013783 -0.174699 0.097054 255 0 0
0.389439 -0.139609 -0.130972 127 0 127
-0.052455 -0.121415 -0.072239 127 0 127
0.145742 0.460680 -0.694111 76 0 153
0.539917 0.358486 -0.553680 153 0 76
-0.246418 -0.083977 -0.108247 127 0 127
0.292799 0.355879 -0.551802 153 0 76
-0.159734 -0.012167 -0.221264 76 0 153
0.641939 -0.116267 -0.090349 127 0 127
0.611672 -0.146292 0.482878 255 0 0
0.264305 -0.107107 0.165296 204 51 127
-0.214866 -0.174699 0.338036 255 0 0
0.576260 0.126180 -0.359610 76 0 153
-0.231635 0.360509 -0.593940 76 0 153
0.204175 0.272476 -0.467714 153 0 76
0.576857 -0.116525 0.187935 255 0 0
-0.499192 -0.124257 -0.138611 127 0 127
0.203127 0.118699 -0.352130 76 0 153
-0.198984 -0.174699 0.330556 255 0 0
-0.156908 0.289240 -0.484619 153 0 76
0.069420 -0.174699 0.132308 255 0 0
0.372952 0.459381 -0.696420 153 76 0
0.337880 -0.174698 0.034718 255 0 0
-0.137096 -0.174699 0.423014 255 0 0
-0.500397 -0.174699 0.168333 255 0 0
-0.341927 -0.053291 -0.180141 76 0 153
-0.612068 -0.174412 0.048408 255 0 0
-0.015706 0.393933 -0.589128 153 0 76
-0.252658 -0.115524 0.513958 255 0 0
-0.147483 -0.069676 -0.125523 76 0 153
0.168652 0.311558 -0.544989 76 0 153
-0.419519 -0.120842 -0.139102 127 0 127
0.101635 -0.126607 0.590578 127 0 127
-0.383556 -0.106659 0.190735 204 51 127
0.117887 -0.087337 -0.120752 127 0 127
0.486021 -0.174698 0.044038 255 0 0
-0.529365 0.389981 -0.586590 153 0 76
0.280396 -0.174699 -0.033131 255 0 0
-0.182950 -0.106774 0.226743 204 51 127
-0.238781 0.300182 -0.533613 76 0 153
0.066314 0.365912 -0.599344 76 0 153
0.033283 0.016836 -0.250267 76 0 153
-0.291255 0.113385 -0.308580 153 0 76
-0.469688 -0.174699 0.453174 255 0 0
-0.267175 0.107726 -0.302921 153 0 76
-0.466279 -0.107101 0.294858 204 51 127
-0.168611 0.265396 -0.460807 153 0 76
-0.179048 -0.118601 -0.072160 127 0 127
-0.181364 -0.046187 -0.187245 76 0 153
-0.278409 -0.174699 0.017061 255 0 0
0.191969 0.386169 -0.582779 153 0 76
0.636926 -0.166223 0.714394 255 0 0
-0.040468 0.493020 -0.690782 76 0 153
-0.199337 -0.075181 -0.120519 76 0 153
0.106075 0.228987 -0.424226 153 0 76
-0.566654 0.278524 -0.474575 76 0 153
-0.615230 -0.117671 0.243114 255 0 0
-0.292174 -0.144832 -0.107582 255 0 0
0.542792 0.319632 -0.514827 153 0 76
0.186037 -0.130377 -0.107348 255 0 0
0.535819 -0.113886 0.405560 255 0 0
-0.203343 -0.092159 -0.141273 76 0 153
0.200364 -0.174699 -0.037759 255 0 0
-0.536196 -0.125660 -0.138189 127 0 127
0.186546 -0.116465 0.702565 255 0 0
-0.405216 -0.174699 0.032134 255 0 0
-0.404874 -0.174699 0.561495 255 0 0
0.328019 0.223846 -0.457278 76 0 153
0.452222 -0.116458 0.645089 255 0 0
-0.097053 -0.095407 -0.080212 127 0 127
0.138134 -0.064641 -0.168791 76 0 153
-0.310240 -0.115524 0.650117 255 0 0
-0.552729 0.047352 -0.280784 76 0 153
0.592744 -0.042373 -0.191059 76 0 153
0.071389 -0.106992 0.405132 204 51 127
0.628169 0.324058 -0.520109 76 0 153
-0.242748 -0.130583 -0.107353 255 0 0
0.254770 -0.119490 -0.072134 127 0 127
0.101790 -0.115736 0.014951 255 0 0
0.388906 -0.116524 0.624459 255 0 0
-0.270776 -0.127116 -0.073584 127 0 127
0.637183 -0.131488 0.122355 255 0 0
-0.597867 -0.115907 0.618546 255 0 0
-0.542740 -0.174699 -0.031229 255 0 0
0.171881 0.447965 -0.681396 76 0 153
0.273520 -0.174699 0.298673 255 0 0
0.517659 0.056469 -0.253078 153 0 76
0.218272 -0.083225 -0.150206 76 0 153
0.274882 -0.138775 -0.131859 127 0 127
-0.416750 0.149181 -0.382612 76 0 153
-0.490586 0.270911 -0.504343 76 0 153
-0.062415 0.352629 -0.547824 153 0 76
-0.023197 -0.174699 0.340659 255 0 0
-0.241251 0.490307 -0.694711 76 0 153
0.446333 -0.101019 -0.096409 76 0 153
-0.532572 -0.116524 0.607256 255 0 0
0.389012 -0.041375 -0.192057 76 0 153
-0.074602 0.304339 -0.537771 76 0 153
0.592386 0.490765 -0.694204 76 0 153
-0.204375 0.092093 -0.287288 153 0 76
0.127406 -0.174699 0.632324 255 0 0
-0.532374 -0.100785 -0.076603 127 0 127
0.270308 -0.174699 0.425468 255 0 0
0.369031 0.060797 -0.294229 76 0 153
0.293280 0.269172 -0.464366 153 0 76
-0.330457 -0.115734 0.627606 255 0 0
0.563358 -0.159148 0.697601 255 0 0
-0.408445 0.286099 -0.519531 76 0 153
-0.441781 -0.174699 0.439201 255 0 0
-0.169390 0.195932 -0.429363 76 0 153
0.057915 -0.115548 0.078129 255 0 0
-0.062206 0.009093 -0.204288 153 0 76
0.197350 0.288176 -0.483720 153 0 76
-0.315759 0.001041 -0.196236 153 0 76
-0.369027 -0.102270 -0.135587 127 0 127
-0.428859 -0.138801 -0.131831 127 0 127
0.148811 -0.106659 0.377959 204 51 127
0.411827 0.305986 -0.501180 153 0 76
0.493835 -0.144096 0.621890 255 0 0
-0.452105 0.281540 -0.478149 153 0 76
0.437984 -0.174699 0.325205 255 0 0
-0.303292 0.136247 -0.369679 76 0 153
0.169575 -0.174699 0.361580 255 0 0
-0.471156 -0.106658 0.380582 204 51 127
-0.140726 0.087348 -0.320779 76 0 153
0.099479 -0.091227 -0.142204 76 0 153
0.338680 -0.116462 0.464990 255 0 0
0.514808 -0.161644 0.660900 255 0 0
0.448314 0.389278 -0.584472 153 0 76
0.251387 0.333950 -0.529512 153 0 76
0.377819 -0.111443 0.095954 255 0 0
0.513016 -0.174699 0.525135 255 0 0
0.556071 -0.130025 0.663163 255 0 0
0.398863 0.404970 -0.601547 153 0 76
0.105540 0.170134 -0.403566 76 0 153
-0.379201 -0.014984 -0.218447 76 0 153
-0.087330 -0.169767 -0.105818 255 0 0
-0.085282 -0.060847 -0.172585 76 0 153
0.071265 -0.174699 0.586001 255 0 0
-0.379565 -0.174699 0.262787 255 0 0
0.173232 -0.106674 0.402558 204 51 127
-0.509074 -0.174699 0.688154 255 0 0
0.377701 -0.174698 0.107877 255 0 0
0.576011 -0.174699 0.239807 255 0 0
0.589474 0.417827 -0.651258 76 0 153
0.343468 -0.114614 0.082914 255 0 0
0.508736 -0.174699 0.224726 255 0 0
-0.117835 0.250892 -0.484323 76 0 153
-0.378262 -0.174699 0.346527 255 0 0
-0.386709 -0.116524 0.608215 255 0 0
-0.366563 -0.134027 0.734417 255 0 0
-0.569627 0.422915 -0.618770 76 0 153
0.633836 0.258914 -0.469012 76 0 153
-0.619751 -0.121830 0.477908 255 0 0
-0.204071 0.355490 -0.550685 153 0 76
-0.027187 -0.065042 -0.130153 76 0 153
0.475285 -0.174699 0.365858 255 0 0
0.128193 -0.135492 -0.107464 255 0 0
-0.598195 0.441989 -0.637184 76 0 153
0.549833 -0.116524 -0.010194 255 0 0
0.127018 -0.115771 0.476715 255 0 0
0.569559 -0.174699 0.207981 255 0 0
-0.611279 -0.087378 -0.090829 127 0 127
-0.151609 0.364238 -0.559433 153 0 76
-0.359810 -0.138708 -0.131903 127 0 127
0.191207 0.404337 -0.600946 153 0 76
-0.015568 0.310411 -0.543842 76 0 153
0.410643 -0.077421 -0.156011 76 0 153
-0.053250 -0.174699 0.182145 255 0 0
-0.602654 -0.148930 -0.094242 127 0 127
0.635474 -0.170730 0.614567 255 0 0
0.200251 -0.115524 0.065094 255 0 0
0.382738 0.388150 -0.621581 76 0 153
0.501599 -0.129483 0.735027 255 0 0
0.104803 0.046291 -0.241486 153 0 76
0.155564 -0.174699 0.212392 255 0 0
-0.034014 -0.174699 0.382000 255 0 0
0.223806 0.035867 -0.231062 153 0 76
-0.500072 0.368661 -0.602092 76 0 153
-0.330020 -0.084647 -0.098704 127 0 127
-0.338208 -0.174699 0.251926 255 0 0
-0.434794 0.258762 -0.455372 153 0 76
0.008413 -0.174699 0.468549 255 0 0
-0.149876 0.169410 -0.364604 153 0 76
-0.501257 0.428371 -0.661803 76 0 153
0.307832 -0.116446 -0.110201 76 0 153
-0.271839 0.090697 -0.285891 153 0 76
0.610374 0.241333 -0.436942 76 0 153
0.340532 -0.115634 -0.139259 127 0 127
-0.305210 0.370580 -0.604011 76 0 153
-0.123509 -0.132413 0.734646 255 0 0
0.264882 0.016157 -0.211951 153 0 76
-0.517238 -0.174699 0.211597 255 0 0
-0.164732 0.030096 -0.263527 76 0 153
0.541033 -0.174699 0.100215 255 0 0
0.383960 -0.019871 -0.176739 153 0 76
-0.494137 -0.106743 0.403793 204 51 127
-0.320556 0.172302 -0.405734 76 0 153
-0.227638 0.347626 -0.581058 76 0 153
0.519378 -0.056414 -0.177017 76 0 153
0.485517 -0.115594 -0.092161 255 0 0
-0.165952 -0.113605 0.446317 255 0 0
0.534210 0.172637 -0.369246 153 0 76
0.171918 -0.115245 0.459162 255 0 0
-0.282284 -0.174699 0.388262 255 0 0
-0.292134 -0.122625 -0.105824 255 0 0
-0.068119 -0.106813 0.133273 204 51 127
0.030515 -0.127047 0.603716 127 0 127
-0.250091 -0.174699 0.475441 255 0 0
0.582517 -0.116047 0.555207 255 0 0
-0.424145 -0.041799 -0.191633 76 0 153
0.272788 0.367931 -0.601362 76 0 153
0.140511 0.206884 -0.440316 76 0 153
-0.381774 -0.046690 -0.186742 76 0 153
-0.377000 -0.106803 0.342194 204 51 127
0.291211 -0.174699 0.337605 255 0 0
-0.479370 0.039299 -0.272731 76 0 153
-0.147786 -0.132139 -0.075600 127 0 127
-0.117619 -0.116306 0.673524 76 153 0
0.486762 0.280348 -0.475543 153 0 76
-0.156813 -0.174699 -0.056618 255 0 0
-0.597449 0.360339 -0.593770 76 0 153
0.080977 -0.174699 0.237849 255 0 0
0.484580 -0.115526 0.065877 255 0 0
0.037100 -0.083935 -0.106834 127 0 127
-0.596749 -0.022534 -0.172897 76 0 153
0.167913 -0.127517 -0.107199 255 0 0
0.533963 -0.101795 -0.096034 76 0 153
0.060097 -0.114625 -0.139289 127 0 127
0.081065 -0.122644 0.494609 255 0 0
-0.348218 -0.099227 -0.097273 76 0 153
0.208012 -0.106956 0.137264 204 51 127
0.352954 0.461950 -0.657448 76 0 153
-0.123835 0.052899 -0.248093 153 0 76
-0.318956 -0.174699 0.316254 255 0 0
0.486245 -0.174699 0.278644 255 0 0
0.528887 0.240461 -0.435656 153 0 76
-0.603235 -0.039905 -0.193526 76 0 153
-0.009311 0.308914 -0.504109 153 0 76
-0.583842 -0.115754 0.392383 255 0 0
-0.320128 -0.106658 0.294381 204 51 127
-0.282360 -0.114433 -0.118783 76 0 153
-0.032330 -0.116077 0.679992 76 153 0
-0.440649 -0.174699 0.116357 255 0 0
0.521458 0.129453 -0.326062 153 0 76
0.451368 -0.118329 0.730245 255 0 0
0.591797 0.458529 -0.691960 76 0 153
0.189299 0.449023 -0.682454 76 0 153
0.433252 0.033974 -0.267405 76 0 153
-0.580937 -0.174699 0.676086 255 0 0
0.555040 -0.116181 0.361324 255 0 0
-0.180501 0.326697 -0.560129 76 0 153
0.218351 0.264430 -0.459624 153 0 76
-0.184769 0.172597 -0.406029 76 0 153
0.597195 0.271371 -0.504803 76 0 153
-0.138649 -0.174699 0.318598 255 0 0
0.618650 -0.129938 0.665090 255 0 0
-0.285207 -0.115674 -0.039104 255 0 0
-0.374892 -0.106917 0.396770 204 51 127
-0.621892 -0.141675 0.204271 255 0 0
-0.593253 0.341127 -0.574559 76 0 153
0.638961 -0.085882 -0.098752 127 0 127
0.069664 -0.044638 -0.150557 76 0 153
-0.276719 -0.174699 0.575307 255 0 0
-0.544556 0.126266 -0.359697 76 0 153
0.417920 -0.043490 -0.153120 76 0 153
0.358644 -0.174699 0.413841 255 0 0
0.570215 0.457622 -0.653408 76 0 153
-0.048559 0.085258 -0.280452 153 0 76
-0.381175 0.221585 -0.418194 153 0 76
-0.160750 -0.115952 0.531725 255 0 0
0.286485 -0.106687 0.372809 204 51 127
0.619334 -0.116185 0.308974 255 0 0
0.312287 -0.174699 0.369465 255 0 0
-0.621892 -0.143489 0.366006 255 0 0
-0.134921 -0.174699 0.092741 255 0 0
0.301548 0.354774 -0.588205 76 0 153
-0.109597 -0.120674 -0.139107 127 0 127
0.149533 -0.115524 0.051656 255 0 0
-0.249270 0.458403 -0.653597 76 0 153
-0.234672 -0.143943 -0.084941 127 0 127
0.183622 0.349660 -0.546270 153 0 76
-0.621891 -0.148494 0.306585 255 0 0
0.442458 -0.094829 -0.080826 127 0 127
-0.422435 0.423874 -0.657306 76 0 153
0.351390 -0.144418 -0.085709 127 0 127
0.060644 0.065783 -0.299215 76 0 153
0.164596 0.375760 -0.572369 153 0 76
-0.505324 -0.174699 0.237627 255 0 0
-0.231483 -0.128208 -0.073841 127 0 127
-0.460601 -0.025617 -0.169578 153 0 76
-0.082709 -0.110618 0.437374 255 0 0
0.350733 0.181132 -0.414564 76 0 153
-0.496881 0.477611 -0.672805 76 0 153
0.559313 0.425127 -0.620321 153 0 76
-0.049252 -0.100058 -0.133374 76 0 153
0.623056 0.465590 -0.661090 76 0 153
0.554394 0.133033 -0.366465 76 0 153
-0.018420 0.367338 -0.600769 76 0 153
0.112850 0.145470 -0.378902 76 0 153
0.046635 -0.174699 0.153492 255 0 0
-0.018520 -0.174699 0.238880 255 0 0
0.609500 -0.160788 0.659299 255 0 0
0.279577 -0.116524 -0.016904 255 0 0
0.624338 -0.174614 0.471327 255 0 0
-0.256608 0.181273 -0.414705 76 0 153
0.385273 0.208788 -0.403983 153 0 76
0.611270 -0.115996 0.403341 255 0 0
-0.403072 -0.146035 -0.123171 127 0 127
-0.092406 -0.114480 0.470153 255 0 0
0.316118 -0.116454 -0.034413 255 0 0
0.059541 -0.110831 0.097861 255 0 0
0.263647 0.032366 -0.265797 76 0 153
-0.501561 -0.049067 -0.146129 76 0 153
-0.317377 -0.116525 -0.000427 255 0 0
-0.245373 0.027672 -0.261104 76 0 153
-0.388122 -0.174699 0.677485 255 0 0
-0.621891 -0.149522 0.583568 255 0 0
0.222373 0.016623 -0.211818 153 0 76
-0.247359 -0.174699 0.679081 255 0 0
0.445316 0.122790 -0.356221 76 0 153
-0.194335 0.175828 -0.371022 153 0 76
0.033816 0.126679 -0.360111 76 0 153
0.204716 0.429497 -0.662929 76 0 153
0.357989 0.485306 -0.680704 76 0 153
-0.342110 -0.142277 -0.107582 255 0 0
-0.206578 0.107860 -0.303055 153 0 76
0.124611 -0.174699 -0.018311 255 0 0
-0.619773 -0.121897 0.155633 255 0 0
0.542805 -0.174698 0.069906 255 0 0
0.069201 -0.174699 0.100352 255 0 0
-0.396528 -0.148655 -0.093327 127 0 127
0.254605 0.381695 -0.615126 76 0 153
0.585043 -0.116174 0.038238 255 0 0
0.039904 -0.174699 0.121640 255 0 0
0.592449 -0.115524 -0.083427 255 0 0
0.189871 -0.174699 0.252482 255 0 0
0.165672 0.120616 -0.315822 153 0 76
0.429109 0.312194 -0.545626 76 0 153
-0.158596 0.142474 -0.375906 76 0 153
0.310253 -0.174698 -0.078574 255 0 0
-0.393783 -0.116507 0.660469 255 0 0
0.178947 -0.110865 0.432866 255 0 0
0.338780 -0.116524 -0.002207 255 0 0
-0.335578 -0.115531 -0.087274 255 0 0
-0.186343 0.401340 -0.634771 76 0 153
0.637145 -0.165776 0.401537 255 0 0
-0.140656 -0.110822 0.437636 255 0 0
-0.382060 0.356263 -0.551952 153 0 76
-0.195788 -0.115524 -0.066454 255 0 0
-0.255789 0.438130 -0.633324 153 0 76
0.222620 -0.174699 0.694973 255 0 0
0.595813 -0.115524 0.679714 255 0 0
-0.525939 -0.174699 0.024113 255 0 0
-0.145467 0.102325 -0.297520 153 0 76
-0.261264 -0.148903 -0.094150 127 0 127
-0.334987 -0.092281 -0.083532 127 0 127
0.594507 -0.116525 0.281561 255 0 0
-0.102044 -0.115615 0.080945 255 0 0
-0.421840 -0.116524 0.682632 255 0 0
0.266056 0.278772 -0.473967 153 0 76
-0.043547 -0.174699 0.100600 255 0 0
0.033641 -0.116012 0.695539 0 127 127
-0.606109 -0.116186 0.552324 255 0 0
0.220449 0.447282 -0.643746 76 0 153
-0.158958 -0.106658 0.172691 204 51 127
0.308619 -0.174699 0.592347 255 0 0
-0.239749 -0.054831 -0.140364 76 0 153
-0.185570 0.417579 -0.612774 153 0 76
-0.153683 -0.156293 -0.107529 255 0 0
0.166838 0.231435 -0.426629 153 0 76
0.222081 -0.163217 0.734543 255 0 0
0.001332 0.046316 -0.241511 153 0 76
0.527326 0.170729 -0.404161 76 0 153
-0.278758 0.448048 -0.643242 76 0 153
-0.430158 -0.106658 0.207642 204 51 127
0.406888 -0.174699 0.090580 255 0 0
0.007843 -0.099736 -0.097027 76 0 153
0.592296 0.083279 -0.316711 76 0 153
-0.323926 -0.021129 -0.174066 153 0 76
0.128176 -0.126655 0.577206 127 0 127
-0.050686 -0.106658 0.368077 204 51 127
0.197393 -0.105429 -0.074331 127 0 127
0.096339 -0.113430 0.444826 255 0 0
0.500711 0.208883 -0.404078 153 0 76
-0.273534 0.176558 -0.371752 153 0 76
0.395499 0.166617 -0.400049 76 0 153
-0.343107 -0.115826 0.641152 255 0 0
-0.330918 0.094994 -0.290189 153 0 76
-0.193790 -0.115524 0.550554 255 0 0
-0.293645 0.318629 -0.552061 76 0 153
0.151953 0.206619 -0.401814 153 0 76
0.473418 0.063951 -0.297383 76 0 153
0.428107 -0.055459 -0.177972 76 0 153
-0.619071 -0.171784 -0.084222 255 0 0
0.457477 -0.115524 0.591456 255 0 0
0.585653 -0.116524 0.127487 255 0 0
-0.502220 -0.106658 0.154828 204 51 127
-0.340599 -0.106658 0.222303 204 51 127
-0.070157 -0.106659 0.250313 204 51 127
-0.621686 -0.161522 0.336461 255 0 0
0.480528 -0.111029 0.434962 255 0 0
0.273044 -0.116800 -0.139224 127 0 127
-0.299940 -0.109187 0.428776 255 0 0
0.087626 -0.106696 0.132710 204 51 127
0.131337 -0.115524 0.058938 255 0 0
-0.225987 -0.115524 0.648201 255 0 0
-0.476695 0.436910 -0.670342 76 0 153
-0.504071 -0.116192 0.051384 255 0 0
-0.035965 -0.057053 -0.176378 76 0 153
-0.615647 0.036415 -0.232122 76 0 153
0.539061 -0.084376 -0.099852 127 0 127
-0.392480 -0.174699 0.529499 255 0 0
0.325106 -0.174699 0.645842 255 0 0
0.594869 -0.116525 0.250532 255 0 0
-0.409389 0.166717 -0.361912 153 0 76
0.329633 -0.133287 -0.076218 127 0 127
-0.164932 -0.140155 -0.130393 127 0 127
-0.626267 -0.106968 -0.124247 127 0 127
-0.543741 -0.174699 0.628587 255 0 0
0.059130 0.255047 -0.450242 153 0 76
0.037025 0.158373 -0.353704 153 0 76
0.227662 0.465500 -0.698801 76 0 153
-0.391883 -0.080592 -0.152839 76 0 153
-0.258165 0.371851 -0.605283 76 0 153
0.616120 -0.174691 0.335747 255 0 0
-0.583890 -0.116377 -0.037590 255 0 0
0.532929 -0.038335 -0.195097 76 0 153
-0.623645 -0.014947 -0.188332 76 0 153
0.568985 -0.087440 -0.120918 127 0 127
-0.625416 0.437261 -0.657245 76 0 153
-0.621124 -0.165014 -0.015376 255 0 0
0.226069 0.208606 -0.442038 76 0 153
-0.534929 -0.174699 0.279779 255 0 0
-0.060177 -0.174699 0.218856 255 0 0
-0.433369 0.062629 -0.296060 76 0 153
-0.343538 -0.174699 0.569890 255 0 0
0.251812 -0.106770 0.233388 204 51 127
-0.571147 -0.174699 0.535171 255 0 0
0.426427 -0.115856 0.610647 255 0 0
-0.109847 -0.106658 0.356082 204 51 127
-0.062998 -0.106658 0.170638 204 51 127
0.579811 -0.116524 -0.014082 255 0 0
-0.532155 0.408790 -0.605399 153 0 76
-0.274092 0.198073 -0.431504 76 0 153
0.435549 -0.174699 0.480902 255 0 0
0.161697 -0.106658 0.169698 204 51 127
-0.271119 0.088110 -0.321541 76 0 153
0.112670 0.166814 -0.362009 153 0 76
0.546895 -0.174699 0.204958 255 0 0
-0.350175 0.037233 -0.232428 153 0 76
0.136360 -0.123381 0.655096 0 127 127
-0.577960 -0.150920 -0.106050 127 0 127
-0.232826 -0.089439 -0.086996 127 0 127
-0.257539 -0.117926 0.725569 255 0 0
-0.087859 -0.022417 -0.211014 76 0 153
-0.605898 -0.124295 -0.072918 127 0 127
0.486419 0.220343 -0.415538 153 0 76
0.581855 -0.116098 0.515141 255 0 0
0.400251 0.356589 -0.590020 76 0 153
0.147241 -0.174699 0.592002 255 0 0
-0.591879 -0.174699 0.478247 255 0 0
0.561146 -0.174699 -0.069298 255 0 0
-0.455347 -0.115524 -0.062647 255 0 0
0.613247 -0.174577 -0.097575 255 0 0
0.620577 -0.115722 -0.091413 255 0 0
-0.081241 0.013357 -0.208552 153 0 76
-0.273013 -0.174699 0.172906 255 0 0
-0.300942 0.130060 -0.325255 153 0 76
0.290894 0.160943 -0.394375 76 0 153
0.499750 -0.174699 0.644497 255 0 0
-0.179368 -0.085008 -0.097173 127 0 127
0.523318 0.287867 -0.521299 76 0 153
0.637327 -0.149333 -0.054748 255 0 0
-0.411003 -0.120272 -0.105163 255 0 0
-0.090908 -0.116192 0.054086 255 0 0
0.358970 0.218900 -0.452332 76 0 153
0.276294 0.345566 -0.578998 76 0 153
-0.241987 -0.174699 0.184387 255 0 0
-0.350762 0.239133 -0.472564 76 0 153
-0.307417 0.488344 -0.696677 76 0 153
0.585986 0.311222 -0.544653 76 0 153
0.448857 -0.150269 -0.112248 127 0 127
-0.256733 0.240146 -0.473577 76 0 153
0.502690 0.256505 -0.489936 76 0 153
-0.253213 -0.174699 0.532236 255 0 0
-0.206170 0.311309 -0.544741 76 0 153
-0.045991 0.004457 -0.237889 76 0 153
0.211260 -0.116176 0.649111 255 0 0
-0.399064 -0.106677 0.388790 204 51 127
0.094982 -0.174699 -0.018766 255 0 0
0.262432 0.104833 -0.300646 153 0 76
-0.210762 0.311564 -0.506758 153 0 76
0.382006 0.034020 -0.229625 153 0 76
-0.576292 -0.115524 0.375659 255 0 0
0.405341 0.194592 -0.390399 153 0 76
0.440738 0.411388 -0.607601 153 0 76
-0.476471 -0.106994 0.336275 204 51 127
0.541549 -0.174699 0.236959 255 0 0
0.161692 0.284691 -0.480268 153 0 76
-0.253697 -0.061411 -0.133784 76 0 153
0.448612 -0.112225 0.092932 255 0 0
-0.403698 -0.135885 -0.077615 127 0 127
0.515860 -0.132882 -0.076000 127 0 127
0.035205 -0.128824 -0.073986 127 0 127
-0.447938 -0.174699 0.277119 255 0 0
0.413451 -0.115570 -0.090248 255 0 0
-0.235907 -0.149292 -0.116393 127 0 127
0.323536 0.443840 -0.640450 153 0 76
-0.572607 0.041909 -0.237387 76 0 153
-0.475265 -0.174699 0.278460 255 0 0
0.616046 -0.115540 0.549690 255 0 0
0.131999 -0.106992 0.128623 204 51 127
0.511165 -0.115524 0.643718 255 0 0
0.514938 0.462363 -0.658035 76 0 153
-0.104483 0.083839 -0.317271 76 0 153
-0.022187 -0.106963 0.284725 204 51 127
-0.600921 -0.116175 -0.018846 255 0 0
-0.124838 0.177130 -0.372325 153 0 76
0.061103 -0.117731 0.669991 0 127 127
-0.320784 -0.126654 -0.137890 127 0 127
0.274295 -0.174699 0.283264 255 0 0
0.541878 -0.116713 -0.072217 127 0 127
-0.186473 -0.115524 0.573195 255 0 0
-0.328997 -0.106760 0.161576 204 51 127
0.560821 0.392258 -0.587453 153 0 76
0.091678 0.073064 -0.268258 153 0 76
0.569665 0.097424 -0.330856 76 0 153
0.248755 -0.174699 0.078959 255 0 0
-0.197864 -0.115524 0.675547 255 0 0
-0.256869 -0.174699 0.364233 255 0 0
0.270630 0.216417 -0.411612 153 0 76
-0.577447 -0.051871 -0.181561 76 0 153
0.412804 0.110048 -0.306657 153 0 76
-0.290375 -0.116525 0.020202 255 0 0
-0.541256 0.261646 -0.458256 153 0 76
-0.104175 -0.121526 -0.105515 255 0 0
0.595536 -0.130157 -0.136837 127 0 127
0.281481 0.315193 -0.510388 153 0 76
0.583704 -0.004347 -0.191382 76 0 153
0.105664 0.338682 -0.535292 153 0 76
0.381422 -0.143767 -0.084656 127 0 127
-0.099102 -0.174699 0.538252 255 0 0
0.484112 -0.106778 0.136944 204 51 127
-0.621268 -0.071287 -0.125996 76 0 153
-0.380012 -0.098033 -0.098108 76 0 153
0.199367 0.488080 -0.696941 76 0 153
0.604680 0.446753 -0.641947 76 0 153
0.613308 0.009076 -0.242493 76 0 153
-0.406010 -0.106664 0.356095 204 51 127
0.563457 -0.160875 0.606730 255 0 0
-0.621824 -0.152899 -0.075862 255 0 0
-0.595034 -0.057655 -0.137540 76 0 153
0.163208 -0.126706 0.640670 255 0 0
-0.199595 0.406837 -0.640268 76 0 153
-0.461733 -0.106824 0.194477 204 51 127
0.376011 -0.028041 -0.205391 76 0 153
-0.278620 -0.174699 0.104352 255 0 0
0.340813 -0.174699 0.386388 255 0 0
0.205258 -0.113608 0.087917 255 0 0
0.001081 -0.126607 0.546877 127 0 127
-0.520572 -0.107708 0.230039 204 51 127
-0.517138 -0.096583 -0.136848 76 0 153
-0.621851 -0.155132 0.062337 255 0 0
-0.022660 0.157573 -0.391005 76 0 153
0.360953 -0.115537 0.072353 255 0 0
-0.506528 -0.174699 0.640716 255 0 0
0.017950 -0.174699 0.319684 255 0 0
0.571093 -0.136847 -0.133054 127 0 127
-0.026100 -0.116164 0.008801 255 0 0
-0.626267 -0.124622 -0.102705 127 0 127
0.319599 -0.174698 0.081632 255 0 0
0.437420 0.463380 -0.658783 76 0 153
0.319388 0.459262 -0.654936 76 0 153
0.122588 0.075573 -0.270767 153 0 76
0.259975 -0.048259 -0.148351 76 0 153
-0.450931 0.144504 -0.377936 76 0 153
0.612241 -0.174697 0.405445 255 0 0
0.482403 -0.148540 0.735125 255 0 0
-0.568783 -0.119310 -0.139148 127 0 127
0.412343 -0.106929 0.219878 204 51 127
0.292339 0.057771 -0.291203 76 0 153
-0.518248 -0.095740 -0.100064 76 0 153
-0.100148 -0.106798 0.256295 204 51 127
0.612255 -0.116271 0.351512 255 0 0
-0.331551 -0.174697 -0.080935 255 0 0
-0.478443 0.332181 -0.528791 153 0 76
0.586035 0.146234 -0.341844 76 0 153
0.343364 -0.174699 0.694019 255 0 0
0.021446 -0.126610 0.520627 127 0 127
0.545514 -0.116307 0.032742 255 0 0
-0.085968 0.155588 -0.389020 76 0 153
-0.066075 0.251560 -0.447098 153 0 76
-0.168755 -0.174699 0.227363 255 0 0
0.007244 -0.107131 0.388581 204 51 127
-0.417458 -0.116244 0.485687 255 0 0
0.184467 -0.151026 0.734791 255 0 0
0.536431 -0.174699 -0.039454 255 0 0
0.443903 -0.174699 0.306522 255 0 0
-0.180757 -0.115524 0.684271 255 0 0
-0.394619 -0.117470 0.723839 255 0 0
0.256537 0.430377 -0.663809 76 0 153
-0.268193 0.038552 -0.271984 76 0 153
-0.602813 0.238191 -0.433449 76 0 153
0.502347 -0.110193 -0.072899 127 0 127
0.085307 -0.037325 -0.157870 153 0 76
0.360514 -0.065520 -0.131090 76 0 153
-0.052908 -0.174699 0.203127 255 0 0
-0.444613 0.182352 -0.377548 153 0 76
0.601653 -0.138003 -0.107521 255 0 0
-0.399351 -0.174699 0.185846 255 0 0
0.633436 0.216836 -0.439129 76 0 153
-0.097380 -0.174699 0.289988 255 0 0
0.026831 -0.109587 0.432289 255 0 0
0.127013 -0.087432 -0.090728 127 0 127
0.582389 0.103957 -0.337389 76 0 153
-0.054604 -0.115524 -0.020090 255 0 0
-0.069266 0.293253 -0.488448 153 0 76
-0.091557 -0.106664 0.409008 204 51 127
0.115157 -0.116525 -0.019172 255 0 0
0.068871 -0.174699 0.308460 255 0 0
0.341671 -0.174699 0.587336 255 0 0
0.547087 0.433887 -0.629227 153 0 76
-0.236904 -0.115524 0.506519 255 0 0
0.486295 -0.174699 0.346033 255 0 0
-0.004628 -0.127363 -0.137677 127 0 127
-0.139098 -0.174699 0.365961 255 0 0
0.467112 -0.174699 0.224610 255 0 0
0.326371 -0.174696 0.709510 255 0 0
0.259943 -0.141793 -0.128653 127 0 127
0.564188 -0.106575 -0.126856 76 0 153
-0.115238 0.096617 -0.291812 153 0 76
0.183228 -0.123874 0.561777 255 0 0
0.450146 -0.076689 -0.119451 76 0 153
-0.285364 0.160255 -0.355449 153 0 76
0.634040 -0.062726 -0.153473 76 0 153
0.178240 -0.026621 -0.168574 153 0 76
0.236233 -0.174699 0.112605 255 0 0
0.567327 0.446898 -0.642553 76 0 153
-0.372833 -0.107658 0.108354 255 0 0
-0.112778 -0.115524 -0.035224 255 0 0
0.608864 0.472376 -0.668294 76 0 153
0.432589 0.021835 -0.218183 153 0 76
0.041793 -0.106749 0.374526 204 51 127
-0.526822 -0.164263 0.734847 255 0 0
0.635925 -0.168750 0.245383 255 0 0
-0.531499 -0.110714 0.304813 255 0 0
0.488836 0.113895 -0.310504 153 0 76
0.585433 0.159575 -0.355215 76 0 153
-0.336355 -0.116096 -0.021598 255 0 0
0.528535 -0.137120 0.705436 255 0 0
0.167391 0.043331 -0.238526 153 0 76
0.347924 0.382850 -0.579365 153 0 76
0.067274 -0.106872 0.197551 204 51 127
-0.071970 -0.116428 0.698019 76 153 0
-0.076040 -0.106658 0.185820 204 51 127
0.625775 -0.112581 -0.138971 127 0 127
0.530348 -0.161165 0.505389 255 0 0
0.020594 -0.145971 -0.123291 127 0 127
0.436312 0.464490 -0.697801 76 0 153
0.497757 0.440921 -0.637531 153 0 76
0.637102 -0.156887 -0.095988 255 0 0
-0.407353 0.211007 -0.444439 76 0 153
-0.333822 -0.116417 0.028175 255 0 0
0.118590 -0.106682 0.219118 204 51 127
0.122651 -0.059790 -0.135405 76 0 153
0.131529 -0.174699 0.111911 255 0 0
-0.526040 0.449789 -0.683221 76 0 153
0.407043 -0.107106 0.361803 204 51 127
-0.329713 0.162592 -0.357787 153 0 76
0.058056 -0.106795 0.302506 204 51 127
0.617946 -0.160850 0.673017 255 0 0
-0.383461 0.107954 -0.341386 76 0 153
0.081676 0.373342 -0.606773 76 0 153
0.156507 0.450925 -0.684357 76 0 153
-0.151963 -0.174699 0.472420 255 0 0
-0.426817 -0.090564 -0.142868 76 0 153
0.363554 0.337548 -0.570980 76 0 153
0.482405 0.026880 -0.223489 153 0 76
-0.569371 -0.174699 0.282851 255 0 0
0.597841 -0.174699 0.200604 255 0 0
-0.393137 0.149769 -0.344963 153 0 76
0.433389 -0.115524 0.523469 255 0 0
0.335948 -0.102889 -0.096480 76 0 153
0.403019 -0.115524 0.529751 255 0 0
0.513060 0.221164 -0.454596 76 0 153
0.095653 0.301371 -0.534802 76 0 153
-0.111801 -0.116192 0.063687 255 0 0
0.369716 -0.094415 -0.101571 76 0 153
0.317728 -0.174699 0.447161 255 0 0
-0.380616 -0.115841 0.694252 255 0 0
-0.497774 -0.174699 0.004965 255 0 0
-0.619409 -0.120787 0.318649 255 0 0
0.568440 -0.116124 0.525839 255 0 0
-0.315741 0.243222 -0.476653 76 0 153
0.116725 -0.106658 0.144109 204 51 127
-0.578530 0.151162 -0.384594 76 0 153
-0.456001 0.302864 -0.499473 153 0 76
-0.316009 -0.174699 0.402251 255 0 0
-0.331656 0.365988 -0.599419 76 0 153
-0.229612 -0.126208 0.732989 255 0 0
0.156549 -0.102981 -0.096560 76 0 153
0.243047 -0.020599 -0.212832 76 0 153
-0.102180 0.138270 -0.371702 76 0 153
0.128780 -0.174699 0.299435 255 0 0
-0.155145 0.181712 -0.415143 76 0 153
0.270415 -0.115896 0.478031 255 0 0
0.506716 0.008621 -0.205230 153 0 76
-0.240524 -0.106662 0.408833 204 51 127
0.135063 -0.174699 0.451395 255 0 0
-0.328649 -0.115524 0.553014 255 0 0
0.528115 -0.149884 -0.097416 127 0 127
-0.329902 0.390081 -0.623512 76 0 153
0.558116 -0.130025 0.535876 255 0 0
0.461039 -0.174699 0.583990 255 0 0
-0.160682 -0.174699 0.161111 255 0 0
-0.232976 -0.116786 0.721178 255 0 0
0.549870 -0.116192 0.280127 255 0 0
-0.569654 0.451121 -0.684553 76 0 153
0.057149 -0.116168 -0.060137 255 0 0
0.504080 0.250657 -0.445852 153 0 76
0.314307 -0.132752 -0.135586 127 0 127
0.262174 0.020547 -0.253978 76 0 153
0.607472 -0.174698 0.648158 255 0 0
0.252185 0.485945 -0.699080 76 0 153
0.257597 -0.116306 -0.040527 255 0 0
0.422106 -0.141840 0.735126 255 0 0
0.035285 -0.142636 -0.107582 255 0 0
-0.095314 0.105632 -0.339064 76 0 153
-0.162813 -0.052442 -0.180989 76 0 153
0.279358 -0.108461 -0.101721 76 0 153
0.004036 -0.030756 -0.164439 153 0 76
0.123891 -0.174699 0.036402 255 0 0
0.224747 -0.174699 0.612777 255 0 0
-0.178470 -0.110846 -0.122583 76 0 153
0.245695 -0.174699 0.292282 255 0 0
-0.517075 0.061893 -0.295325 76 0 153
0.407461 -0.107476 0.381286 204 51 127
-0.272965 0.335700 -0.569132 76 0 153
0.244054 -0.116025 0.671786 255 0 0
-0.346882 -0.013504 -0.219927 76 0 153
-0.284995 0.138861 -0.334056 153 0 76
-0.158419 -0.174699 0.299854 255 0 0
-0.456889 0.130279 -0.325474 153 0 76
0.574893 -0.130025 0.672988 255 0 0
0.609474 -0.116338 0.008351 255 0 0
-0.031151 0.252722 -0.486153 76 0 153
-0.503245 -0.116524 0.497741 255 0 0
-0.595448 0.377203 -0.610634 76 0 153
-0.495402 -0.174699 0.321480 255 0 0
0.173993 -0.116067 0.681914 255 0 0
0.451403 -0.115524 0.474857 255 0 0
-0.264204 -0.106658 0.209629 204 51 127
0.530354 -0.031689 -0.164777 153 0 76
0.482401 -0.174699 0.451946 255 0 0
0.578694 -0.130417 0.688139 255 0 0
-0.053681 -0.118254 -0.139180 127 0 127
0.601328 -0.089464 -0.105852 76 0 153
-0.581392 0.127717 -0.323317 76 0 153
-0.351034 -0.174699 0.215921 255 0 0
-0.167012 0.387638 -0.582832 153 0 76
-0.092783 0.188911 -0.422342 76 0 153
-0.247860 0.215304 -0.411913 153 0 76
-0.154495 -0.086998 -0.091535 127 0 127
-0.101801 -0.174699 0.467692 255 0 0
-0.207110 -0.106658 0.232726 204 51 127
-0.141599 -0.174699 0.209254 255 0 0
0.612449 0.428397 -0.623713 76 0 153
0.335049 0.013733 -0.210236 153 0 76
0.632413 -0.173016 -0.046715 255 0 0
0.617198 -0.115570 0.517503 255 0 0
0.049545 0.285594 -0.519026 76 0 153
-0.393343 -0.174699 0.455370 255 0 0
-0.463663 0.165024 -0.398456 76 0 153
-0.331993 -0.106658 0.359843 204 51 127
-0.557229 -0.174699 0.599062 255 0 0
0.132174 -0.126607 0.624593 127 0 127
-0.605482 -0.174642 0.062273 255 0 0
-0.586519 -0.116514 0.523076 255 0 0
-0.565857 -0.174699 0.426577 255 0 0
-0.408358 -0.174699 0.113398 255 0 0
0.407914 -0.146601 -0.122118 127 0 127
-0.604634 -0.116187 0.495274 255 0 0
-0.444916 -0.106659 0.361904 204 51 127
0.450274 0.382119 -0.615551 76 0 153
0.035896 -0.174699 0.366953 255 0 0
-0.248728 0.355899 -0.551094 153 0 76
-0.220132 0.139095 -0.372527 76 0 153
0.615411 0.003195 -0.198392 76 0 153
0.233091 -0.116525 0.699569 255 0 0
-0.139676 -0.115622 -0.025239 255 0 0
0.386340 -0.174699 0.467288 255 0 0
0.605431 -0.130001 0.507361 255 0 0
0.199260 -0.167340 -0.106677 255 0 0
-0.438095 -0.174699 0.603907 255 0 0
-0.255308 -0.115524 -0.086264 255 0 0
0.633926 0.332696 -0.546489 76 0 153
0.370379 -0.115756 0.041747 255 0 0
0.328782 -0.115961 0.580483 255 0 0
-0.276752 -0.174699 -0.056517 255 0 0
0.015508 0.433021 -0.666452 76 0 153
-0.377842 -0.001474 -0.231958 76 0 153
0.503556 -0.160686 0.612830 255 0 0
0.280286 0.395147 -0.591756 153 0 76
0.486137 0.088279 -0.321710 76 0 153
0.005059 0.387984 -0.621416 76 0 153
0.182148 -0.131713 -0.136228 127 0 127
0.217840 -0.037910 -0.157588 153 0 76
-0.139135 0.213513 -0.446944 76 0 153
-0.463333 0.040438 -0.235633 153 0 76
0.623876 -0.115749 0.461475 255 0 0
-0.602539 0.266989 -0.500415 76 0 153
-0.232048 -0.155500 0.735094 255 0 0
-0.143701 0.462735 -0.696110 76 0 153
-0.502297 0.057265 -0.290697 76 0 153
0.278422 -0.143864 -0.084814 127 0 127
-0.235049 0.157871 -0.353066 153 0 76
0.036467 -0.174699 0.611639 255 0 0
-0.287168 -0.174699 0.547447 255 0 0
0.593070 -0.116525 0.323250 255 0 0
-0.256437 -0.174699 0.279273 255 0 0
0.496615 -0.156571 0.570130 255 0 0
0.073883 -0.174699 0.677921 255 0 0
-0.350544 -0.115524 -0.075404 255 0 0
-0.126504 0.230097 -0.463529 76 0 153
0.150352 -0.068246 -0.126949 76 0 153
0.502593 -0.028435 -0.204997 76 0 153
0.023245 -0.006807 -0.188388 153 0 76
0.401225 -0.115524 -0.074842 255 0 0
0.532966 -0.115524 0.605345 255 0 0
-0.564346 -0.085785 -0.116844 127 0 127
0.038865 -0.009393 -0.224038 76 0 153
0.499604 -0.115524 0.592851 255 0 0
0.435396 -0.037225 -0.159385 153 0 76
0.317763 -0.174699 0.547563 255 0 0
-0.371617 -0.059060 -0.174371 76 0 153
0.292395 0.206788 -0.401983 153 0 76
-0.380680 -0.174699 0.615247 255 0 0
-0.621890 -0.153156 0.167476 255 0 0
-0.548486 -0.115204 0.412736 255 0 0
0.129052 -0.106658 0.164404 204 51 127
-0.127135 -0.026235 -0.168960 153 0 76
-0.589980 -0.088390 -0.122455 127 0 127
0.394732 -0.174699 0.576397 255 0 0
-0.436773 0.113699 -0.308894 153 0 76
0.507837 -0.132545 0.619023 255 0 0
-0.400645 -0.116242 0.684425 255 0 0
0.635611 -0.169516 0.315460 255 0 0
0.088055 0.039531 -0.272963 76 0 153
0.383084 -0.106992 0.281011 204 51 127
-0.114714 0.116045 -0.349476 76 0 153
-0.583650 -0.174699 0.062685 255 0 0
-0.618267 -0.119240 0.280118 255 0 0
0.516703 -0.107151 0.223153 204 51 127
0.335658 -0.174699 0.171850 255 0 0
0.224232 -0.116524 -0.016803 255 0 0
-0.060262 -0.174699 0.422124 255 0 0
-0.150888 0.016750 -0.211945 153 0 76
0.226887 0.209217 -0.404412 153 0 76
0.239385 -0.174699 0.552766 255 0 0
0.010496 -0.174695 0.713829 255 0 0
0.401460 0.016047 -0.211362 153 0 76
0.262611 -0.108395 0.106299 255 0 0
-0.534776 -0.074609 -0.120586 76 0 153
0.271596 0.398402 -0.631833 76 0 153
-0.183961 0.465837 -0.661031 76 0 153
-0.508068 0.119895 -0.315090 153 0 76
0.355321 -0.030963 -0.202468 76 0 153
-0.381347 0.393917 -0.627348 76 0 153
-0.602853 -0.115605 0.196708 255 0 0
0.348385 -0.107110 0.166836 204 51 127
-0.360736 -0.116114 0.509214 255 0 0
-0.291957 -0.116879 -0.072212 127 0 127
0.324346 0.229174 -0.424368 153 0 76
-0.222431 0.067666 -0.262860 153 0 76
0.013613 0.084610 -0.279804 153 0 76
-0.490317 -0.095103 -0.138329 76 0 153
0.122396 0.187005 -0.382908 153 0 76
-0.265702 0.324597 -0.519792 153 0 76
0.637349 -0.146938 -0.034943 255 0 0
0.322164 0.277940 -0.473134 153 0 76
-0.229965 -0.174699 0.075974 255 0 0
-0.029040 -0.116049 -0.117009 76 0 153
0.570975 0.482847 -0.678906 76 0 153
-0.281976 -0.109688 -0.102946 76 0 153
0.547504 -0.090131 -0.085816 127 0 127
0.634269 0.473608 -0.687932 76 0 153
0.303413 -0.174698 0.066642 255 0 0
-0.266623 -0.106658 0.261893 204 51 127
-0.215878 0.389963 -0.623395 76 0 153
0.520207 -0.174699 0.650967 255 0 0
0.186501 -0.174699 0.659834 255 0 0
0.508060 0.448804 -0.682235 76 0 153
0.118344 -0.115610 0.464525 255 0 0
0.494259 -0.106826 0.228248 204 51 127
0.282751 -0.116185 0.686079 255 0 0
-0.617070 0.284227 -0.517024 76 0 153
-0.535005 -0.174699 0.590350 255 0 0
0.429631 -0.150496 -0.099449 127 0 127
0.491727 -0.115606 0.361851 204 51 127
0.154053 -0.005956 -0.189239 153 0 76
0.269566 -0.115524 0.558165 255 0 0
0.568172 -0.174699 0.307017 255 0 0
-0.382666 0.357300 -0.590731 76 0 153
0.518473 -0.115524 0.614635 255 0 0
0.053109 -0.174699 0.183084 255 0 0
-0.550722 0.479776 -0.674970 76 0 153
0.414903 -0.072269 -0.123925 76 0 153
-0.520713 -0.116469 0.533869 255 0 0
0.391939 -0.174699 0.205889 255 0 0
0.569155 -0.115524 0.636684 255 0 0
-0.599680 0.170625 -0.404057 76 0 153
-0.415113 0.295445 -0.528877 76 0 153
0.247160 0.453219 -0.686650 76 0 153
-0.621830 -0.133937 0.094332 255 0 0
0.351461 -0.126606 0.734334 255 0 0
0.351496 -0.139225 -0.131381 127 0 127
-0.420891 0.462959 -0.658153 76 0 153
-0.284349 -0.116192 0.049629 255 0 0
0.304672 -0.006258 -0.190352 153 0 76
0.244616 0.237611 -0.471043 76 0 153
-0.073545 0.065915 -0.261109 153 0 76
0.507122 -0.101887 -0.095990 76 0 153
-0.353851 -0.116072 0.489680 255 0 0
0.351996 -0.116218 0.481782 255 0 0
0.315083 -0.106860 0.155420 204 51 127
-0.071270 0.439263 -0.634458 153 0 76
0.251677 0.294811 -0.490005 153 0 76
-0.457554 0.141246 -0.336441 153 0 76
-0.094141 0.304630 -0.538061 76 0 153
0.243116 -0.174698 0.045502 255 0 0
0.451043 0.013607 -0.210034 153 0 76
-0.367970 -0.174699 0.579271 255 0 0
0.627773 -0.116562 0.361371 255 0 0
0.181017 -0.174699 0.179048 255 0 0
-0.287566 -0.135639 -0.133801 127 0 127
0.529523 -0.130022 0.521072 255 0 0
-0.045775 0.272040 -0.467236 153 0 76
-0.589732 0.162769 -0.358507 153 0 76
0.044483 -0.115909 0.675419 0 127 127
-0.446362 -0.146676 0.735125 255 0 0
0.597480 -0.130025 0.562461 255 0 0
-0.153412 0.063989 -0.297421 76 0 153
-0.312051 -0.115887 -0.098391 255 0 0
-0.073416 0.326928 -0.560360 76 0 153
-0.470981 -0.070213 -0.163219 76 0 153
-0.166127 -0.115554 0.559406 255 0 0
0.046209 0.427471 -0.660903 76 0 153
-0.460446 -0.136020 -0.133565 127 0 127
-0.619329 -0.171164 0.312519 255 0 0
0.457747 -0.007343 -0.188143 153 0 76
0.278170 -0.065692 -0.167740 76 0 153
0.136753 -0.141977 -0.082839 127 0 127
-0.201369 -0.174695 0.713759 255 0 0
-0.279447 -0.174696 0.711926 255 0 0
0.317108 -0.115739 0.535790 255 0 0
-0.278004 -0.174699 0.423137 255 0 0
-0.573536 -0.116192 0.652898 255 0 0
-0.330515 -0.059329 -0.135866 76 0 153
0.307888 -0.174699 0.352961 255 0 0
-0.500236 -0.174699 -0.061344 255 0 0
-0.451931 -0.174699 0.102538 255 0 0
0.042200 -0.087505 -0.090593 127 0 127
0.362809 -0.115556 -0.089168 255 0 0
-0.096836 -0.131496 -0.136362 127 0 127
0.552640 0.158081 -0.391513 76 0 153
-0.371274 0.416005 -0.611200 153 0 76
-0.100728 0.101845 -0.297040 153 0 76
-0.340142 0.163919 -0.397351 76 0 153
0.557004 -0.130025 0.627807 255 0 0
0.625712 -0.174601 0.549307 255 0 0
0.580915 0.290141 -0.523573 76 0 153
0.152077 0.373593 -0.607024 76 0 153
-0.323943 -0.174699 0.115535 255 0 0
0.419175 0.065008 -0.261618 153 0 76
-0.405879 -0.164981 -0.107285 255 0 0
-0.578995 -0.174699 0.023710 255 0 0
0.195448 0.146148 -0.342269 153 0 76
0.089801 -0.143785 0.734082 255 0 0
-0.421313 -0.174699 0.601832 255 0 0
0.372489 0.470623 -0.665817 76 0 153
0.147955 -0.130586 0.734969 255 0 0
0.508939 0.402050 -0.597245 153 0 76
-0.614757 0.170661 -0.403699 76 0 153
-0.466217 -0.107444 0.418283 204 51 127
-0.315002 -0.130823 0.734075 255 0 0
0.342943 -0.106937 0.147576 204 51 127
-0.216225 -0.097898 -0.078389 127 0 127
-0.111504 0.028215 -0.223410 153 0 76
-0.351097 -0.089931 -0.143500 76 0 153
0.096536 -0.089991 -0.085970 127 0 127
0.212846 -0.174699 0.441371 255 0 0
0.131704 0.313413 -0.546845 76 0 153
0.567837 -0.115708 0.569817 255 0 0
-0.022301 -0.115623 -0.139259 127 0 127
0.328295 0.170601 -0.367210 153 0 76
-0.113765 -0.174699 0.213102 255 0 0
-0.222519 0.411872 -0.607067 153 0 76
-0.621890 -0.145414 0.708400 255 0 0
-0.306011 -0.174699 0.136682 255 0 0
0.332681 0.252173 -0.485604 76 0 153
-0.259715 -0.108333 -0.125098 76 0 153
0.180571 0.027498 -0.260929 76 0 153
0.308466 -0.116526 0.472647 255 0 0
-0.084211 0.003802 -0.237234 76 0 153
0.335056 -0.174699 0.658041 255 0 0
0.465838 0.227486 -0.460918 76 0 153
-0.249570 -0.174699 0.043715 255 0 0
-0.012483 -0.172215 0.732482 255 0 0
-0.113493 -0.115792 -0.009303 255 0 0
-0.014187 -0.174699 0.190515 255 0 0
-0.385907 0.296120 -0.492729 153 0 76
-0.208949 -0.090493 -0.125855 127 0 127
0.152641 -0.116908 -0.110799 76 0 153
0.281610 0.241936 -0.437131 153 0 76
-0.199612 -0.174699 0.377230 255 0 0
0.016670 -0.106763 0.206963 204 51 127
0.118030 0.396121 -0.592730 153 0 76
0.130888 -0.085624 -0.147807 76 0 153
0.326277 -0.116190 0.720110 255 0 0
0.044313 -0.174699 0.073250 255 0 0
0.425549 -0.174699 0.543731 255 0 0
0.444501 -0.043463 -0.189969 76 0 153
0.642286 -0.115529 -0.126176 127 0 127
-0.621808 -0.131474 0.171224 255 0 0
-0.382343 -0.116505 0.494900 255 0 0
0.540372 -0.114517 0.224807 255 0 0
-0.457546 -0.174699 0.088856 255 0 0
-0.512453 0.318676 -0.515285 153 0 76
-0.155925 0.314493 -0.509688 153 0 76
0.151966 -0.174699 0.701680 255 0 0
0.386705 -0.116107 0.030189 255 0 0
0.610887 -0.115525 0.490865 255 0 0
-0.070333 -0.116192 0.042868 255 0 0
0.384593 -0.093689 -0.082037 127 0 127
-0.381003 0.320066 -0.516675 153 0 76
0.112745 -0.126917 0.564410 127 0 127
0.334362 -0.174699 0.087864 255 0 0
-0.120468 -0.126647 0.564716 127 0 127
-0.035868 -0.122046 0.712424 255 0 0
-0.131281 -0.112906 -0.106287 76 0 153
-0.273968 0.335232 -0.530426 153 0 76
0.225927 0.136669 -0.333158 153 0 76
-0.116214 -0.174699 0.626617 255 0 0
0.341099 -0.106696 0.132920 204 51 127
0.208991 -0.174699 0.080914 255 0 0
-0.099906 -0.174699 0.497677 255 0 0
0.371792 0.451729 -0.683072 153 76 0
-0.193341 -0.174699 0.126729 255 0 0
-0.245715 0.427913 -0.661345 76 0 153
0.551912 0.070174 -0.303606 76 0 153
0.353425 -0.150952 -0.107114 127 0 127
-0.295985 0.041857 -0.275289 76 0 153
-0.497009 0.070057 -0.265252 153 0 76
-0.474125 -0.174699 0.569009 255 0 0
-0.625662 0.288648 -0.499711 76 0 153
-0.007954 -0.106683 0.336348 204 51 127
-0.511589 0.403660 -0.637092 76 0 153
0.173624 0.468804 -0.701904 76 0 153
0.556155 -0.174699 0.262094 255 0 0
0.363687 -0.046879 -0.149731 76 0 153
-0.504404 -0.150222 -0.112447 127 0 127
-0.460723 0.409731 -0.643163 76 0 153
-0.323041 0.053146 -0.248341 153 0 76
-0.047822 0.145323 -0.340517 153 0 76
-0.254990 -0.031364 -0.163831 153 0 76
0.416233 0.220918 -0.454350 76 0 153
0.159832 -0.116800 0.671436 255 0 0
0.275384 -0.074295 -0.121844 76 0 153
0.586239 -0.160618 0.656702 255 0 0
0.371289 0.396617 -0.593223 153 0 76
0.357771 -0.159702 0.734855 255 0 0
0.194857 -0.117002 0.497632 255 0 0
0.179304 0.057616 -0.291048 76 0 153
-0.084631 0.243014 -0.476445 76 0 153
0.474221 -0.174699 0.163944 255 0 0
0.336424 -0.174699 -0.005775 255 0 0
-0.419975 -0.115524 -0.064242 255 0 0
-0.014295 -0.174699 0.434309 255 0 0
0.232561 -0.174584 0.724685 255 0 0
0.621902 -0.174636 0.014243 255 0 0
0.623938 -0.115751 0.607740 255 0 0
0.251783 -0.116300 0.005412 255 0 0
-0.059003 -0.106658 0.291751 204 51 127
0.443408 0.478943 -0.674137 76 0 153
-0.055082 -0.174699 0.282208 255 0 0
-0.139496 -0.115881 0.079769 255 0 0
-0.159127 0.361911 -0.595342 76 0 153
-0.348168 -0.174699 0.529400 255 0 0
-0.145013 0.447591 -0.642785 76 0 153
0.182205 -0.174699 0.530466 255 0 0
0.531472 0.131606 -0.365038 76 0 153
0.258588 0.353561 -0.586992 76 0 153
0.079787 0.190893 -0.424324 76 0 153
-0.366935 -0.106658 0.147429 204 51 127
0.553445 -0.085042 -0.110269 76 0 153
-0.441597 -0.116524 0.672233 255 0 0
-0.460649 -0.174699 0.329855 255 0 0
0.338842 -0.107370 0.422446 255 0 0
0.343870 0.264649 -0.498081 76 0 153
0.033214 0.328940 -0.562372 76 0 153
0.202969 0.344521 -0.577953 76 0 153
-0.003828 -0.106040 -0.074148 127 0 127
0.085681 0.341045 -0.574477 76 0 153
0.519361 -0.174699 0.681873 255 0 0
0.545228 -0.116091 0.429541 255 0 0
-0.387070 0.380905 -0.576100 153 0 76
-0.444501 -0.116524 0.533150 255 0 0
-0.310554 0.059150 -0.292581 76 0 153
0.291345 -0.174699 0.133934 255 0 0
-0.378285 0.374967 -0.608398 76 0 153
0.244958 0.358390 -0.555000 153 0 76
0.011358 -0.085244 -0.115044 127 0 127
-0.473988 -0.174699 0.178924 255 0 0
0.420866 0.013078 -0.208657 153 0 76
-0.511204 0.060542 -0.255737 153 0 76
0.466742 -0.087222 -0.091118 127 0 127
-0.018357 -0.115694 -0.072248 127 0 127
-0.494306 -0.174699 0.370918 255 0 0
-0.381537 -0.174699 -0.007058 255 0 0
-0.621800 -0.157552 0.080330 255 0 0
