ply
format ascii 1.0
element vertex 1277
property float x
property float y
property float z
property uchar red
property uchar green
property uchar blue
end_header
0.505161 -0.172818 0.162323 255 0 0
-0.283778 0.423528 -0.654298 76 0 153
-0.468748 0.440255 -0.671024 76 0 153
-0.160396 -0.172818 0.100091 255 0 0
-0.322723 -0.108539 0.135030 204 51 127
-0.520926 -0.117405 0.492140 255 0 0
0.617171 -0.142165 0.464641 255 0 0
-0.578022 -0.117405 0.533680 255 0 0
-0.475726 0.180227 -0.410997 76 0 153
-0.126189 -0.126271 0.101892 255 0 0
0.561668 0.482202 -0.680058 76 0 153
-0.600169 0.311466 -0.509322 76 0 153
-0.305125 0.480330 -0.702036 76 0 153
-0.406515 0.368449 -0.599219 76 0 153
-0.059440 0.246378 -0.477148 76 0 153
0.572680 -0.104236 -0.074690 127 0 127
0.498701 0.398684 -0.596540 153 0 76
0.533838 0.105559 -0.303415 76 0 153
-0.624050 0.346123 -0.576884 76 0 153
-0.200310 0.115697 -0.346467 76 0 153
0.086784 -0.108539 0.267813 204 51 127
0.153911 -0.172818 -0.021014 255 0 0
-0.271188 -0.117405 0.492782 255 0 0
0.154919 0.306340 -0.537110 76 0 153
0.192647 -0.172818 0.610202 255 0 0
-0.000655 -0.172818 0.612913 255 0 0
0.483544 0.422051 -0.652821 76 0 153
-0.189365 0.209121 -0.439891 76 0 153
-0.030274 0.319996 -0.550765 76 0 153
0.023448 0.340017 -0.537873 153 0 76
-0.421656 -0.143856 -0.126460 127 0 127
0.208636 0.418020 -0.648790 76 0 153
-0.559517 -0.023784 -0.174072 153 0 76
-0.156905 0.317273 -0.515130 153 0 76
0.174756 0.228635 -0.459404 76 0 153
0.530517 0.188580 -0.386436 153 0 76
-0.189821 -0.108539 0.115969 204 51 127
0.396418 -0.172818 0.673968 255 0 0
0.612901 -0.172818 0.383177 255 0 0
0.569865 0.217435 -0.415292 153 0 76
0.455454 0.183058 -0.380915 153 0 76
0.424051 -0.149947 -0.113614 127 0 127
-0.515835 0.008257 -0.206114 153 0 76
0.214415 -0.108539 0.269257 204 51 127
0.404689 -0.048878 -0.181892 76 0 153
-0.115684 0.265589 -0.496358 76 0 153
0.037747 -0.117405 0.457304 255 0 0
-0.492435 -0.117405 0.611786 255 0 0
-0.388523 0.266235 -0.497005 76 0 153
0.029777 -0.108539 0.146197 204 51 127
-0.258593 -0.172818 0.501811 255 0 0
-0.328684 -0.172818 0.311015 255 0 0
0.551377 -0.117405 0.099736 255 0 0
-0.457125 -0.172818 0.570574 255 0 0
0.383606 -0.172818 0.538089 255 0 0
-0.451742 -0.172818 0.184149 255 0 0
-0.514116 0.064619 -0.295388 76 0 153
0.269170 0.254224 -0.452081 153 0 76
0.327414 -0.172818 0.518431 255 0 0
-0.468621 -0.108539 0.189257 204 51 127
-0.353464 0.158733 -0.356590 153 0 76
-0.542432 -0.172818 0.068178 255 0 0
0.021039 -0.172818 0.076737 255 0 0
0.556053 -0.172818 0.499704 255 0 0
-0.131872 0.209681 -0.407537 153 0 76
-0.205357 -0.087209 -0.143561 76 0 153
0.530145 -0.126271 0.254491 255 0 0
0.010742 -0.108539 0.340992 204 51 127
0.312082 -0.117405 -0.035084 255 0 0
-0.277820 -0.172818 0.269231 255 0 0
0.167468 -0.172818 0.579962 255 0 0
0.396311 0.256502 -0.454359 153 0 76
0.315309 0.027251 -0.258021 76 0 153
-0.366522 0.198801 -0.429571 76 0 153
-0.493571 0.341182 -0.539038 153 0 76
-0.284842 -0.117405 0.005960 255 0 0
-0.328422 0.050490 -0.248347 153 0 76
0.369233 -0.147360 -0.105701 127 0 127
-0.113285 0.406642 -0.604498 153 0 76
-0.599688 -0.141142 -0.017634 255 0 0
-0.061165 -0.172818 0.643888 255 0 0
0.279839 -0.172818 0.269030 255 0 0
-0.347212 0.474487 -0.705257 76 0 153
0.120823 0.025762 -0.256532 76 0 153
-0.068739 0.160653 -0.358510 153 0 76
0.018955 -0.108539 0.402915 204 51 127
0.191772 0.441546 -0.672316 76 0 153
-0.024353 0.019516 -0.250286 76 0 153
-0.146364 0.452264 -0.650120 76 0 153
-0.109755 0.102512 -0.300368 153 0 76
0.560980 -0.128144 0.609543 255 0 0
-0.315066 0.319900 -0.517756 153 0 76
-0.257837 0.234375 -0.432232 153 0 76
0.339902 -0.108539 0.423417 255 0 0
0.357550 0.263932 -0.494702 76 0 153
-0.434055 0.351651 -0.582421 76 0 153
0.034435 0.223878 -0.421735 153 0 76
0.205982 -0.172818 0.359996 255 0 0
0.051224 -0.052216 -0.145641 76 0 153
-0.225102 -0.172818 0.087934 255 0 0
-0.221971 -0.172818 0.464875 255 0 0
0.577990 0.006363 -0.204219 76 0 153
-0.043756 -0.108539 0.180130 204 51 127
0.324629 -0.066038 -0.131818 76 0 153
-0.109294 -0.172818 0.188039 255 0 0
0.099955 -0.025213 -0.172643 153 0 76
0.606526 -0.172818 0.222262 255 0 0
-0.036985 -0.031313 -0.166544 153 0 76
0.630184 -0.169853 0.733245 255 0 0
0.357731 0.193382 -0.391238 153 0 76
-0.253581 -0.108539 0.419467 255 0 0
0.617606 -0.172818 0.151095 255 0 0
0.096032 0.031929 -0.229785 153 0 76
-0.493907 -0.108539 0.338306 204 51 127
-0.584713 -0.087454 -0.110402 76 0 153
-0.172047 -0.136082 -0.077720 127 0 127
0.054871 0.193405 -0.424175 76 0 153
-0.450197 -0.013455 -0.184401 153 0 76
-0.341079 -0.172818 -0.009072 255 0 0
0.230796 -0.172818 0.288713 255 0 0
0.358103 -0.172818 0.395054 255 0 0
-0.036476 0.179835 -0.410604 76 0 153
-0.471535 -0.117405 0.502412 255 0 0
0.004262 0.157747 -0.355603 153 0 76
-0.620012 -0.147154 0.551125 255 0 0
-0.525458 -0.110985 -0.106902 76 0 153
-0.194461 -0.172818 0.586780 255 0 0
-0.620012 -0.128533 0.648858 255 0 0
0.589936 -0.172818 0.285185 255 0 0
0.330223 0.442781 -0.673551 76 0 153
0.110962 0.303709 -0.501565 153 0 76
-0.403701 0.125224 -0.323081 153 0 76
0.361892 0.422418 -0.620274 153 0 76
0.265507 -0.117405 0.661632 255 0 0
-0.042197 -0.172818 -0.079511 255 0 0
-0.555473 -0.172818 0.340229 255 0 0
0.575706 -0.141303 0.293903 255 0 0
-0.406522 0.214491 -0.445261 76 0 153
-0.261776 0.473379 -0.671236 76 0 153
-0.434308 -0.172818 -0.007883 255 0 0
-0.515741 0.245263 -0.476032 76 0 153
0.164084 -0.148433 -0.118711 127 0 127
0.438866 -0.023816 -0.174040 153 0 76
0.309368 0.298556 -0.529326 76 0 153
-0.342831 -0.172818 -0.079294 255 0 0
0.584657 -0.145932 -0.055100 127 0 127
-0.410375 0.203973 -0.401829 153 0 76
0.234905 0.346699 -0.544556 153 0 76
-0.176322 -0.117405 0.471191 255 0 0
-0.554328 0.453264 -0.651121 76 0 153
-0.620012 -0.154721 0.186524 255 0 0
0.316335 -0.143682 0.733245 255 0 0
0.520442 0.020683 -0.218539 153 0 76
0.508404 -0.172818 0.326833 255 0 0
-0.298834 0.374806 -0.572662 153 0 76
-0.591076 0.121651 -0.352421 76 0 153
0.217604 0.210823 -0.441593 76 0 153
-0.426057 -0.117405 0.579497 255 0 0
-0.127300 0.167060 -0.364917 153 0 76
-0.410117 0.078308 -0.309078 76 0 153
-0.620012 -0.136621 0.586430 255 0 0
-0.472585 -0.172818 0.709288 255 0 0
-0.353135 -0.118542 -0.072162 255 0 0
0.316868 -0.117405 0.479192 255 0 0
-0.198093 0.446693 -0.677463 76 0 153
-0.200023 0.385607 -0.616377 76 0 153
-0.279213 0.020928 -0.251698 76 0 153
0.538095 0.365482 -0.563338 153 0 76
0.340726 -0.110900 0.365729 204 51 127
-0.242324 0.101103 -0.298959 153 0 76
0.015488 -0.117405 0.665541 0 127 127
0.540776 0.280004 -0.510773 76 0 153
0.003595 -0.172818 0.380286 255 0 0
0.565810 -0.162499 0.615410 255 0 0
0.520721 0.276819 -0.474675 153 0 76
0.355794 0.352328 -0.550184 153 0 76
-0.119476 -0.091546 -0.139224 127 0 127
0.224677 -0.172818 0.235078 255 0 0
-0.605307 0.200366 -0.398222 76 0 153
-0.121591 0.475490 -0.673347 76 0 153
0.471421 0.363165 -0.561022 153 0 76
0.234539 -0.108539 0.159225 204 51 127
-0.238181 0.205969 -0.403826 153 0 76
0.333145 0.034206 -0.232063 153 0 76
0.167238 -0.117405 0.728716 255 0 0
0.500564 -0.172818 0.263015 255 0 0
0.196889 0.090501 -0.288357 153 0 76
-0.149228 0.111744 -0.309600 153 0 76
0.569423 -0.128144 0.369311 255 0 0
0.608261 -0.150437 -0.111538 127 0 127
0.495533 -0.172818 0.491324 255 0 0
0.244338 0.141163 -0.339019 153 0 76
-0.409762 -0.115155 -0.111072 255 0 0
0.608323 -0.142038 -0.032243 255 0 0
-0.092013 0.276417 -0.474273 153 0 76
-0.321158 -0.117405 0.731438 255 0 0
0.227298 -0.044081 -0.186689 76 0 153
0.447909 -0.001638 -0.196219 153 0 76
-0.364428 0.055113 -0.252969 153 0 76
0.198836 -0.172818 0.007601 255 0 0
-0.156407 -0.117405 0.592493 255 0 0
0.620784 -0.128144 0.704432 255 0 0
0.600883 0.081612 -0.312382 76 0 153
-0.120958 0.062337 -0.293107 76 0 153
0.040534 -0.172818 0.193000 255 0 0
-0.133213 0.132929 -0.330785 153 0 76
-0.453723 -0.137631 -0.078748 127 0 127
-0.428859 -0.172818 0.513737 255 0 0
-0.148754 -0.108539 0.216657 204 51 127
-0.314106 0.255479 -0.453336 153 0 76
0.117656 -0.108539 0.294493 204 51 127
-0.285152 -0.071377 -0.159393 76 0 153
-0.538985 -0.172818 0.277667 255 0 0
0.046539 0.254556 -0.452412 153 0 76
-0.077060 -0.172818 0.531391 255 0 0
-0.241578 0.434929 -0.632785 153 0 76
-0.431262 -0.117405 -0.059701 255 0 0
-0.247155 -0.117405 0.643391 255 0 0
0.090052 0.062688 -0.293458 76 0 153
-0.611344 -0.117405 0.244057 255 0 0
-0.598591 0.393254 -0.591111 76 0 153
0.419434 -0.172818 0.414125 255 0 0
0.295909 -0.172818 0.576557 255 0 0
-0.085555 0.375058 -0.605827 76 0 153
0.001082 0.086815 -0.284672 153 0 76
0.473471 -0.117405 0.675058 255 0 0
0.476201 -0.060698 -0.137158 76 0 153
-0.560248 0.065785 -0.263642 153 0 76
-0.498760 -0.172818 0.661826 255 0 0
0.598165 -0.128144 0.554432 255 0 0
-0.346085 -0.108539 0.335711 204 51 127
0.586292 0.300119 -0.497976 153 0 76
0.353757 -0.104071 -0.136555 127 0 127
0.333642 -0.172818 0.638942 255 0 0
-0.593496 -0.172818 0.238116 255 0 0
0.269633 0.164121 -0.394891 76 0 153
0.564319 0.113878 -0.344648 76 0 153
0.423590 0.387342 -0.618112 76 0 153
0.559862 -0.128144 0.663541 255 0 0
0.429130 0.443679 -0.641536 76 0 153
0.391642 -0.172818 0.079783 255 0 0
-0.484142 -0.144395 0.733245 255 0 0
0.170720 -0.095292 -0.135478 127 0 127
0.278836 -0.031392 -0.166465 76 0 153
-0.090916 -0.172818 0.085297 255 0 0
-0.161877 0.066650 -0.264507 153 0 76
-0.350305 0.431450 -0.629307 153 0 76
0.315715 0.355851 -0.553707 153 0 76
-0.503045 -0.117405 0.673839 255 0 0
-0.122277 -0.119008 -0.105701 255 0 0
0.379253 0.044984 -0.242841 153 0 76
-0.540062 -0.172818 0.714062 255 0 0
-0.316897 0.103897 -0.334667 76 0 153
-0.249542 -0.172818 0.367164 255 0 0
-0.133515 -0.172818 -0.063580 255 0 0
-0.086924 -0.172818 -0.019337 255 0 0
0.439724 0.050938 -0.281707 76 0 153
0.209181 -0.124264 0.428316 255 0 0
0.068460 -0.126271 0.440180 255 0 0
-0.173539 0.366867 -0.597637 76 0 153
-0.620012 -0.149055 0.363928 255 0 0
0.557691 0.051837 -0.249694 153 0 76
0.631858 0.103010 -0.333780 76 0 153
-0.051764 0.050436 -0.248293 153 0 76
-0.024710 0.110002 -0.340772 76 0 153
0.018900 -0.172818 0.135476 255 0 0
0.586376 -0.117405 0.314225 255 0 0
-0.405224 -0.023615 -0.174242 153 0 76
0.195728 -0.117405 -0.053160 255 0 0
0.132725 0.392388 -0.623158 76 0 153
0.307635 0.115531 -0.313388 153 0 76
0.273717 -0.117405 -0.051314 255 0 0
-0.097405 -0.118926 0.663499 76 153 0
0.037940 -0.106802 -0.102720 76 0 153
-0.320905 0.456797 -0.654654 76 0 153
-0.098173 -0.128488 0.580331 127 0 127
0.585721 -0.070148 -0.127708 76 0 153
0.420824 -0.172818 0.159748 255 0 0
0.239743 -0.117405 0.600818 255 0 0
0.000640 0.325042 -0.555812 76 0 153
0.117914 0.114051 -0.311907 153 0 76
-0.248303 -0.172818 0.152105 255 0 0
0.513876 -0.034590 -0.163266 153 0 76
-0.595243 -0.145376 0.047672 255 0 0
0.008991 -0.064390 -0.166380 76 0 153
0.613781 0.226777 -0.424633 76 0 153
0.003311 -0.172818 0.203400 255 0 0
-0.270460 -0.172818 -0.099621 255 0 0
0.372968 -0.108539 0.329858 204 51 127
-0.312914 -0.172818 0.590748 255 0 0
-0.185484 -0.117405 0.027875 255 0 0
0.073182 -0.069676 -0.128180 76 0 153
0.602629 -0.172818 -0.077665 255 0 0
-0.620012 -0.145694 0.138218 255 0 0
0.068511 -0.172818 -0.033514 255 0 0
0.261070 0.010583 -0.208440 153 0 76
-0.215074 0.189043 -0.386900 153 0 76
-0.592354 -0.034591 -0.196179 76 0 153
-0.063983 0.490138 -0.687994 76 0 153
-0.584996 -0.172818 0.532095 255 0 0
-0.033364 -0.135959 -0.133603 127 0 127
0.532459 -0.136696 0.431772 255 0 0
-0.358651 -0.172818 0.150174 255 0 0
0.259518 0.082516 -0.313286 76 0 153
-0.339562 -0.143213 0.733245 255 0 0
-0.396265 0.244974 -0.442830 153 0 76
0.505841 -0.117405 0.472871 255 0 0
-0.106405 -0.172818 0.411596 255 0 0
0.146315 0.274494 -0.472350 153 0 76
-0.020548 0.488664 -0.686521 76 0 153
-0.194690 -0.172818 0.487158 255 0 0
0.209705 -0.172818 0.529578 255 0 0
-0.225320 -0.172818 0.399257 255 0 0
-0.543580 0.145802 -0.376572 76 0 153
0.391715 0.097649 -0.295505 153 0 76
-0.328000 0.092166 -0.290022 153 0 76
-0.239420 0.102508 -0.333278 76 0 153
-0.058968 -0.118538 -0.105701 255 0 0
-0.548298 0.193639 -0.424409 76 0 153
0.203055 -0.172818 0.077117 255 0 0
0.014336 0.291082 -0.521852 76 0 153
-0.509903 -0.086373 -0.118801 76 0 153
0.483018 0.190463 -0.421233 76 0 153
0.243429 -0.102684 -0.075429 127 0 127
0.378680 0.140118 -0.337975 153 0 76
-0.452187 -0.172818 0.292311 255 0 0
-0.445734 -0.012060 -0.218710 76 0 153
0.057417 0.288839 -0.519608 76 0 153
0.475438 -0.172818 0.126684 255 0 0
-0.221775 -0.096803 -0.079066 127 0 127
-0.253675 0.379021 -0.609791 76 0 153
-0.059103 -0.108539 0.148734 204 51 127
-0.002170 -0.138726 -0.079778 127 0 127
-0.595034 -0.117405 0.191429 255 0 0
-0.504931 -0.172818 0.223936 255 0 0
0.056386 -0.172818 0.472087 255 0 0
0.559414 -0.172818 0.725540 255 0 0
0.496128 -0.172818 0.581945 255 0 0
0.141684 -0.172818 0.100642 255 0 0
-0.496636 0.151656 -0.349512 153 0 76
0.172714 -0.172818 -0.090936 255 0 0
-0.620012 -0.146026 0.677783 255 0 0
0.363044 -0.046779 -0.183991 76 0 153
0.433320 0.238082 -0.435938 153 0 76
-0.132726 -0.148130 0.733245 255 0 0
0.635636 -0.147558 0.158662 255 0 0
0.469151 0.063025 -0.260881 153 0 76
0.440508 -0.172818 0.278761 255 0 0
-0.588951 -0.172818 0.399426 255 0 0
0.379301 0.300589 -0.531359 76 0 153
0.312286 0.007496 -0.205353 153 0 76
-0.437145 -0.117405 0.001052 255 0 0
0.014746 0.189778 -0.387634 153 0 76
-0.460799 0.209893 -0.440663 76 0 153
0.004834 0.248361 -0.446217 153 0 76
0.199277 -0.113544 -0.109461 76 0 153
-0.305034 -0.172818 -0.031540 255 0 0
-0.133202 -0.172818 0.701875 255 0 0
0.104909 0.352962 -0.550819 153 0 76
0.019862 0.468817 -0.666673 76 0 153
-0.360888 -0.172818 -0.104726 255 0 0
-0.362025 0.020918 -0.218775 153 0 76
-0.103181 -0.117405 0.044912 255 0 0
-0.510337 -0.108539 0.154907 204 51 127
0.463413 -0.108539 0.322934 204 51 127
-0.031779 -0.172818 0.446598 255 0 0
0.310906 -0.172818 0.026069 255 0 0
-0.590807 -0.172818 -0.098829 255 0 0
-0.016760 0.143090 -0.373859 76 0 153
0.224345 0.273698 -0.504468 76 0 153
0.224518 -0.130565 -0.136715 127 0 127
-0.098885 -0.172818 0.355623 255 0 0
-0.537430 -0.172818 -0.037308 255 0 0
0.202436 -0.172818 -0.063683 255 0 0
-0.002908 -0.143990 -0.126318 127 0 127
-0.039682 -0.117405 0.020331 255 0 0
0.571138 0.147243 -0.378013 76 0 153
0.232470 0.190666 -0.388522 153 0 76
-0.362492 -0.172818 0.457893 255 0 0
-0.281987 -0.108539 0.174247 204 51 127
0.624121 -0.117405 0.414435 255 0 0
-0.342403 -0.117405 0.706610 255 0 0
-0.547371 0.414111 -0.611967 153 0 76
-0.600327 0.055497 -0.253354 76 0 153
0.394775 -0.077118 -0.120738 76 0 153
-0.160424 -0.172818 0.034253 255 0 0
0.405227 -0.172818 0.373354 255 0 0
0.300279 0.057649 -0.288419 76 0 153
0.369026 -0.108539 0.290868 204 51 127
-0.588886 -0.172818 0.337639 255 0 0
-0.620012 -0.148342 0.077512 255 0 0
-0.080006 -0.086012 -0.093369 127 0 127
0.135902 0.024562 -0.222419 153 0 76
-0.305751 0.205181 -0.403037 153 0 76
0.453929 0.138795 -0.369565 76 0 153
0.018662 -0.128488 0.547740 127 0 127
0.561024 0.384708 -0.615478 76 0 153
0.608459 -0.172818 -0.001550 255 0 0
-0.145894 -0.172818 -0.023346 255 0 0
0.620026 0.286268 -0.484125 76 0 153
0.611830 -0.162499 0.631216 255 0 0
0.612953 -0.080651 -0.117205 127 0 127
-0.313316 -0.172818 0.032816 255 0 0
0.521112 0.453124 -0.683894 76 0 153
0.082723 -0.128488 0.549673 127 0 127
0.635636 -0.152230 0.309412 255 0 0
0.139408 -0.172818 -0.055975 255 0 0
0.376129 0.445754 -0.643610 153 0 76
0.435401 0.080645 -0.311415 76 0 153
0.339517 0.055618 -0.253475 153 0 76
-0.620012 -0.158341 0.429056 255 0 0
0.464489 -0.085850 -0.112006 76 0 153
0.409529 0.449294 -0.686333 153 76 0
0.116804 -0.117405 0.021694 255 0 0
0.037579 0.370924 -0.568781 153 0 76
0.513205 -0.112777 0.347691 204 51 127
0.316931 -0.172818 -0.020852 255 0 0
0.419756 -0.108539 0.380050 204 51 127
-0.090700 0.140291 -0.371061 76 0 153
-0.437771 0.163994 -0.361851 153 0 76
0.539756 -0.172818 0.082582 255 0 0
-0.183038 -0.172818 0.122201 255 0 0
0.196505 -0.125786 0.551018 255 0 0
-0.345114 -0.172818 0.203587 255 0 0
0.289370 -0.117405 0.462467 255 0 0
0.281165 0.405420 -0.636190 76 0 153
-0.305321 -0.114734 -0.116036 76 0 153
0.384024 0.477335 -0.675191 76 0 153
0.610753 -0.162499 0.529795 255 0 0
-0.391556 -0.172818 0.227283 255 0 0
-0.217607 0.148627 -0.379397 76 0 153
-0.012086 0.014464 -0.212321 153 0 76
0.243432 0.297597 -0.528367 76 0 153
0.297152 0.135469 -0.366239 76 0 153
0.123223 0.490074 -0.687930 76 0 153
0.334294 -0.144687 -0.086145 127 0 127
-0.110995 0.116650 -0.347420 76 0 153
0.038761 0.251276 -0.482046 76 0 153
0.220528 0.037159 -0.267929 76 0 153
-0.224290 0.083442 -0.281299 153 0 76
-0.301767 0.149812 -0.380582 76 0 153
-0.517614 0.113683 -0.311539 153 0 76
-0.525659 0.347737 -0.578506 76 0 153
-0.147113 0.153105 -0.383875 76 0 153
0.396117 -0.117405 0.058239 255 0 0
-0.085467 -0.133683 -0.076430 127 0 127
-0.517634 0.064517 -0.262374 153 0 76
0.453096 -0.146136 -0.122983 127 0 127
-0.291602 -0.172818 0.730985 255 0 0
-0.344715 -0.141976 -0.128458 127 0 127
0.112931 0.417567 -0.615424 153 0 76
-0.566471 0.181647 -0.379503 153 0 76
0.597747 -0.128144 0.615536 255 0 0
0.460330 0.472302 -0.670158 76 0 153
0.229191 -0.108539 0.341919 204 51 127
0.270262 -0.172818 0.368832 255 0 0
-0.291283 -0.108539 0.278034 204 51 127
0.090596 0.172925 -0.370781 153 0 76
0.154286 -0.108539 0.191933 204 51 127
-0.318045 0.010508 -0.241278 76 0 153
-0.328138 -0.172818 0.697783 255 0 0
-0.446561 -0.073153 -0.124704 76 0 153
0.155655 0.240889 -0.438746 153 0 76
-0.026656 0.204759 -0.435529 76 0 153
-0.237268 -0.172818 0.193058 255 0 0
-0.556037 0.254808 -0.452665 153 0 76
0.110585 -0.110073 0.105815 255 0 0
0.605448 0.482852 -0.680708 76 0 153
0.140523 0.183968 -0.414738 76 0 153
0.449263 -0.117405 0.036013 255 0 0
-0.069223 0.368144 -0.566000 153 0 76
0.026653 -0.172818 0.017164 255 0 0
0.397226 -0.172818 0.441710 255 0 0
-0.038698 -0.117405 0.694526 76 153 0
-0.604982 0.102350 -0.333120 76 0 153
-0.331039 -0.035460 -0.195310 76 0 153
-0.281935 -0.172818 -0.010162 255 0 0
0.498097 -0.162499 0.525102 255 0 0
0.184394 -0.172818 0.481397 255 0 0
0.101439 0.062823 -0.260679 153 0 76
0.179848 0.331033 -0.561803 76 0 153
-0.590279 -0.117405 0.645337 255 0 0
-0.560101 -0.172818 0.454006 255 0 0
-0.562101 0.296377 -0.494234 153 0 76
0.593191 0.127729 -0.358499 76 0 153
0.501051 -0.117405 -0.013571 255 0 0
0.312406 -0.172818 0.327735 255 0 0
0.592117 -0.117405 0.248257 255 0 0
-0.367131 -0.010778 -0.219992 76 0 153
0.611661 -0.172818 0.318755 255 0 0
-0.140828 -0.108539 0.376164 204 51 127
0.072011 0.452890 -0.683660 76 0 153
0.614046 0.125550 -0.323406 76 0 153
-0.338327 0.194901 -0.392757 153 0 76
-0.534561 0.436519 -0.667288 76 0 153
-0.535651 -0.091221 -0.082517 76 0 153
-0.372638 0.304593 -0.502449 153 0 76
-0.176361 0.456281 -0.654138 76 0 153
0.494872 0.234647 -0.465417 76 0 153
-0.620181 0.227119 -0.424976 76 0 153
-0.003871 -0.126271 0.097672 255 0 0
0.429615 0.257870 -0.488640 76 0 153
0.430712 0.345692 -0.576462 76 0 153
-0.478739 0.243771 -0.474540 76 0 153
-0.520569 -0.172818 0.132874 255 0 0
0.560313 -0.016232 -0.214538 76 0 153
0.132509 0.083587 -0.281443 153 0 76
0.429062 0.206871 -0.404727 153 0 76
-0.435880 0.321453 -0.519309 153 0 76
0.032785 0.029969 -0.227825 153 0 76
0.530972 -0.117405 -0.060224 127 0 127
0.555296 0.254906 -0.452762 153 0 76
0.144317 0.349980 -0.547837 153 0 76
-0.608430 -0.172818 0.621753 255 0 0
0.009458 -0.172818 -0.050517 255 0 0
0.543034 -0.148238 0.462840 255 0 0
-0.223686 -0.117405 0.075670 255 0 0
0.106801 -0.172818 0.413123 255 0 0
-0.388076 0.351014 -0.581784 76 0 153
0.513368 -0.142068 -0.128360 127 0 127
-0.137683 0.423403 -0.654173 76 0 153
-0.087940 -0.108539 0.139104 204 51 127
-0.490624 -0.172818 0.555548 255 0 0
-0.159639 0.158956 -0.356812 153 0 76
0.508861 -0.172818 0.391489 255 0 0
0.285616 -0.149464 -0.096016 127 0 127
0.320627 0.397019 -0.594875 153 0 76
0.478237 -0.108539 0.275224 204 51 127
0.437562 -0.117405 0.581736 255 0 0
-0.200190 -0.172818 -0.065622 255 0 0
-0.435137 0.393600 -0.591457 153 0 76
-0.332898 0.291230 -0.522000 76 0 153
-0.193949 -0.172818 0.246451 255 0 0
-0.055843 -0.150156 -0.112729 255 0 0
-0.404258 -0.172818 -0.000299 255 0 0
0.569286 0.365052 -0.562909 153 0 76
-0.024365 -0.172818 0.331202 255 0 0
0.129308 -0.117405 0.457776 255 0 0
-0.234956 -0.172818 0.256196 255 0 0
-0.042011 -0.108539 0.409928 204 51 127
0.441608 -0.172818 0.235107 255 0 0
-0.493026 -0.172818 -0.037341 255 0 0
0.065987 -0.172818 -0.091100 255 0 0
0.113088 0.228941 -0.426797 153 0 76
0.363405 -0.172818 0.334324 255 0 0
-0.444146 0.219324 -0.417180 153 0 76
-0.469464 -0.172818 0.459049 255 0 0
-0.607120 -0.149289 0.733245 255 0 0
0.210162 0.491341 -0.691025 76 0 153
-0.543913 -0.117405 0.642800 255 0 0
-0.626267 -0.104193 -0.074879 127 0 127
0.120452 -0.153461 -0.105701 127 0 127
0.218251 -0.172818 0.137492 255 0 0
-0.164494 0.355081 -0.552937 153 0 76
-0.454778 0.109609 -0.340379 76 0 153
-0.301359 -0.117405 -0.027207 255 0 0
0.456069 -0.172818 0.057031 255 0 0
-0.184200 0.011504 -0.242274 76 0 153
0.237973 -0.102390 -0.128380 76 0 153
0.612412 0.290742 -0.521512 76 0 153
-0.313754 0.403890 -0.634660 76 0 153
-0.033380 -0.172818 0.012787 255 0 0
0.196779 0.120901 -0.318758 153 0 76
0.584590 -0.144977 0.452160 255 0 0
-0.291535 0.108721 -0.306577 153 0 76
-0.137555 0.211812 -0.442582 76 0 153
0.104384 -0.172818 0.703842 255 0 0
0.632706 0.365056 -0.595498 76 0 153
-0.119314 -0.060794 -0.137063 76 0 153
0.371430 -0.117405 0.002454 255 0 0
0.378035 -0.117405 0.461231 255 0 0
-0.089196 0.310722 -0.508578 153 0 76
-0.612285 -0.063173 -0.167596 76 0 153
-0.070588 0.322328 -0.553098 76 0 153
0.204093 -0.117405 -0.021466 255 0 0
-0.593596 -0.117405 0.135268 255 0 0
-0.093432 -0.108539 0.210526 204 51 127
-0.423332 -0.172818 0.070087 255 0 0
0.423536 -0.172818 0.057700 255 0 0
0.090312 -0.110199 -0.106116 255 0 0
0.611672 -0.162499 0.581560 255 0 0
0.098447 0.331767 -0.529624 153 0 76
-0.050274 -0.108539 0.307164 204 51 127
0.474397 0.012733 -0.243503 76 0 153
-0.368753 0.377082 -0.574939 153 0 76
0.276461 0.131194 -0.329050 153 0 76
0.298384 -0.041428 -0.189342 76 0 153
0.266455 0.428482 -0.659252 76 0 153
-0.441531 -0.122656 -0.139047 127 0 127
0.392968 -0.117405 0.504313 255 0 0
-0.095280 -0.108539 0.109512 204 51 127
0.611329 0.184600 -0.415369 76 0 153
0.234960 0.472140 -0.669997 76 0 153
0.471235 0.303143 -0.501000 153 0 76
0.482697 -0.144172 0.455358 255 0 0
0.235722 0.374479 -0.605249 76 0 153
0.244834 -0.148749 -0.118124 255 0 0
0.347330 0.453332 -0.651188 76 0 153
0.185123 0.290199 -0.488055 153 0 76
0.260957 -0.172818 0.213268 255 0 0
-0.175979 -0.117405 0.532736 255 0 0
-0.591016 0.222636 -0.453406 76 0 153
0.235299 0.069405 -0.267261 153 0 76
-0.243964 -0.172818 -0.062807 255 0 0
0.617209 0.415801 -0.613658 76 0 153
-0.482363 -0.117405 0.544753 255 0 0
0.343561 0.375159 -0.605929 76 0 153
0.568356 -0.117405 0.566210 255 0 0
0.051112 -0.108539 0.343239 204 51 127
0.599832 0.431877 -0.662647 76 0 153
-0.478260 -0.168125 -0.105701 255 0 0
0.244748 -0.117405 0.052784 255 0 0
0.529260 -0.117405 0.013391 255 0 0
-0.585462 0.179595 -0.410365 76 0 153
0.134628 0.290365 -0.521135 76 0 153
0.019038 -0.062513 -0.135343 76 0 153
0.555713 -0.117405 0.716503 255 0 0
0.334387 0.222508 -0.420364 153 0 76
0.498941 -0.172818 0.718100 255 0 0
-0.149367 0.404211 -0.602067 153 0 76
0.063231 -0.001273 -0.196584 153 0 76
0.180937 0.163130 -0.393900 76 0 153
0.129132 -0.172818 0.623946 255 0 0
0.576899 -0.140656 0.026430 255 0 0
0.238117 -0.172818 -0.047240 255 0 0
-0.469769 -0.026687 -0.204083 76 0 153
-0.485880 -0.172818 0.502656 255 0 0
0.174653 -0.062946 -0.167824 76 0 153
-0.416529 -0.172818 0.625282 255 0 0
0.178005 -0.128488 0.584311 255 0 0
-0.176851 0.196587 -0.394443 153 0 76
-0.509668 0.222027 -0.419884 153 0 76
-0.036554 0.302949 -0.500805 153 0 76
-0.438830 -0.172818 0.667790 255 0 0
-0.443200 0.352198 -0.550054 153 0 76
0.133817 0.431211 -0.661980 76 0 153
0.358015 0.311569 -0.509425 153 0 76
0.349415 -0.172818 0.686805 255 0 0
0.607667 -0.172818 0.121285 255 0 0
0.609477 -0.143084 0.129267 255 0 0
0.217742 -0.137381 -0.078512 127 0 127
-0.049225 0.122413 -0.320269 153 0 76
-0.252972 -0.117405 0.710245 255 0 0
-0.243830 -0.147647 -0.090931 127 0 127
0.112861 -0.108539 0.207732 204 51 127
-0.067493 -0.057893 -0.139963 76 0 153
0.522004 -0.018153 -0.212617 76 0 153
0.271787 0.217195 -0.415051 153 0 76
0.319050 0.080306 -0.278163 153 0 76
-0.087311 0.078510 -0.276366 153 0 76
-0.596194 -0.117405 0.597416 255 0 0
-0.054955 0.153265 -0.384035 76 0 153
0.372776 -0.172818 0.006711 255 0 0
0.510604 -0.128144 0.578993 255 0 0
0.598370 -0.143024 0.718516 255 0 0
-0.161651 -0.084296 -0.100193 127 0 127
0.339397 0.131343 -0.329200 153 0 76
0.419226 -0.117405 0.548442 255 0 0
0.604046 -0.017072 -0.180785 76 0 153
0.438168 -0.172818 0.485459 255 0 0
0.367213 -0.172818 0.202253 255 0 0
-0.435691 -0.117405 0.053712 255 0 0
-0.497928 -0.067497 -0.163273 76 0 153
-0.194745 -0.124154 0.091096 255 0 0
-0.588546 -0.172818 -0.018768 255 0 0
-0.385407 -0.108539 0.303179 204 51 127
0.493467 -0.104278 -0.136667 127 0 127
0.635636 -0.142244 0.103086 255 0 0
0.254074 0.273422 -0.504192 76 0 153
-0.014478 0.298943 -0.529713 76 0 153
-0.527867 -0.117405 0.015209 255 0 0
0.441843 -0.057489 -0.173281 76 0 153
0.367280 -0.117405 -0.051087 255 0 0
-0.323826 0.054352 -0.285122 76 0 153
-0.349675 0.256479 -0.487248 76 0 153
0.034802 0.163605 -0.394375 76 0 153
-0.603683 -0.135673 -0.133780 127 0 127
-0.491893 -0.117887 -0.139191 127 0 127
-0.395127 -0.117405 -0.006875 255 0 0
0.380535 -0.117405 0.566259 255 0 0
-0.306738 -0.117405 0.653045 255 0 0
0.093020 -0.142149 -0.105701 127 0 127
-0.282363 -0.172818 0.360994 255 0 0
-0.480805 0.058310 -0.256166 153 0 76
-0.012099 -0.172818 0.228746 255 0 0
-0.063614 -0.021337 -0.176519 153 0 76
0.009586 -0.018993 -0.178864 153 0 76
-0.558675 0.110785 -0.308642 153 0 76
-0.517418 -0.148775 0.733245 255 0 0
0.009888 -0.108539 0.206825 204 51 127
0.118366 0.395241 -0.593097 153 0 76
0.606153 -0.117405 0.178706 255 0 0
-0.425535 -0.148450 0.733245 255 0 0
-0.466548 0.275325 -0.506095 76 0 153
-0.073126 -0.172818 0.463533 255 0 0
0.140335 -0.022215 -0.175641 153 0 76
-0.135838 -0.144733 -0.125529 127 0 127
-0.534759 0.466091 -0.696861 76 0 153
-0.505618 0.456576 -0.687346 76 0 153
-0.448457 -0.117405 -0.034335 255 0 0
0.162298 0.380040 -0.577897 153 0 76
0.408232 -0.126271 0.436882 255 0 0
0.397729 -0.139056 -0.105701 255 0 0
-0.405836 -0.002157 -0.228613 76 0 153
0.289534 -0.108539 0.414174 204 51 127
-0.342717 -0.143754 -0.084635 127 0 127
0.060170 -0.147391 0.733245 255 0 0
-0.450242 0.196912 -0.394769 153 0 76
-0.321522 0.173506 -0.404276 76 0 153
-0.113179 0.325659 -0.556428 76 0 153
0.050554 -0.108539 0.239201 204 51 127
0.477789 -0.001979 -0.195877 153 0 76
0.065084 0.345457 -0.543313 153 0 76
0.171629 0.432242 -0.630099 153 0 76
0.153324 0.456153 -0.686923 76 0 153
0.369222 -0.117405 -0.101468 255 0 0
-0.594118 0.098046 -0.295902 76 0 153
0.482697 -0.138101 0.625334 255 0 0
-0.473934 -0.117405 -0.086329 255 0 0
-0.041868 -0.172818 0.080421 255 0 0
-0.285010 0.054502 -0.252359 153 0 76
0.505870 -0.088501 -0.088740 127 0 127
0.320304 0.178686 -0.376542 153 0 76
-0.590743 -0.172818 0.652497 255 0 0
0.412132 -0.117405 -0.004047 255 0 0
-0.380639 0.073256 -0.304026 76 0 153
0.188476 0.310616 -0.541386 76 0 153
-0.479862 -0.117405 0.050812 255 0 0
-0.620311 0.459514 -0.690284 76 0 153
0.185734 -0.108539 0.384310 204 51 127
0.066117 -0.117405 0.696466 255 0 0
0.292159 -0.172818 0.656297 255 0 0
0.166715 0.492137 -0.689993 76 0 153
-0.622513 0.070828 -0.268684 76 0 153
-0.567162 0.062607 -0.293377 76 0 153
-0.298352 -0.172818 0.236553 255 0 0
-0.488602 0.440944 -0.638800 153 0 76
0.311110 0.412542 -0.643312 76 0 153
0.227901 -0.172818 0.552737 255 0 0
0.223602 0.426895 -0.624751 153 0 76
-0.187898 -0.172818 0.628051 255 0 0
0.093204 -0.172818 0.137192 255 0 0
0.482697 -0.137695 0.532624 255 0 0
0.546729 -0.117405 0.070338 255 0 0
-0.548327 0.368241 -0.599011 76 0 153
-0.149707 -0.001243 -0.196614 153 0 76
0.512196 0.171578 -0.402348 76 0 153
-0.553679 -0.117405 0.302002 255 0 0
-0.164270 -0.108539 0.335974 204 51 127
0.539355 -0.146635 0.291258 255 0 0
0.545331 0.314969 -0.545739 76 0 153
0.546374 0.031768 -0.229624 153 0 76
-0.620012 -0.137179 0.392599 255 0 0
0.601881 0.249980 -0.480750 76 0 153
-0.347613 -0.172818 0.614552 255 0 0
-0.214654 -0.117405 0.690069 255 0 0
-0.394386 -0.117405 0.657785 255 0 0
0.501150 0.436140 -0.633996 153 0 76
0.331167 -0.096840 -0.079043 127 0 127
0.130511 -0.014171 -0.216599 76 0 153
-0.001544 0.357195 -0.587965 76 0 153
0.445171 -0.172818 0.176635 255 0 0
0.041911 -0.172818 0.251582 255 0 0
-0.553673 -0.172818 0.177443 255 0 0
-0.426693 0.259463 -0.457320 153 0 76
0.153731 -0.117405 -0.054263 255 0 0
0.043396 -0.057082 -0.173687 76 0 153
0.184742 -0.172818 0.339748 255 0 0
0.087960 0.270705 -0.468561 153 0 76
0.015539 -0.100769 -0.134780 76 0 153
0.433634 -0.172818 0.596722 255 0 0
0.231167 0.431300 -0.662070 76 0 153
0.085805 -0.172818 0.599490 255 0 0
-0.173993 -0.061625 -0.136231 76 0 153
0.008328 -0.172818 0.432152 255 0 0
-0.509839 0.365170 -0.595940 76 0 153
-0.449140 0.490999 -0.688856 76 0 153
0.056375 -0.172818 0.415724 255 0 0
-0.588632 0.343924 -0.574694 76 0 153
-0.094753 0.220755 -0.418611 153 0 76
0.304082 -0.108539 0.138473 204 51 127
-0.187749 0.279522 -0.510292 76 0 153
0.537790 -0.140435 0.718516 255 0 0
0.590327 0.277178 -0.475034 153 0 76
0.489282 0.220126 -0.417982 153 0 76
0.196505 -0.122111 0.656628 255 0 0
0.274574 -0.145947 0.733245 255 0 0
0.631414 -0.053807 -0.176963 76 0 153
0.312418 0.268210 -0.466066 153 0 76
0.369346 0.003001 -0.233771 76 0 153
0.393846 -0.095560 -0.080049 127 0 127
0.279884 -0.117405 0.604890 255 0 0
-0.279551 -0.117405 -0.083796 255 0 0
0.542418 0.083897 -0.281753 76 0 153
0.560584 -0.117405 0.148991 255 0 0
-0.026318 -0.126271 0.434948 255 0 0
0.582752 0.314784 -0.545554 76 0 153
-0.603991 0.390938 -0.621708 76 0 153
-0.409190 0.157674 -0.355530 153 0 76
0.027678 0.134514 -0.365283 76 0 153
-0.166436 0.256451 -0.454307 153 0 76
-0.317670 0.007048 -0.204905 153 0 76
0.002297 -0.110432 -0.106350 255 0 0
-0.439923 -0.172818 0.119712 255 0 0
-0.046935 -0.108539 0.239443 204 51 127
0.269804 -0.059454 -0.171316 76 0 153
0.453009 -0.117405 -0.062920 255 0 0
0.055795 0.221823 -0.452593 76 0 153
-0.261777 0.283729 -0.481585 153 0 76
-0.009156 -0.085456 -0.095276 127 0 127
-0.478134 -0.022319 -0.175537 153 0 76
-0.310836 -0.172818 -0.080069 255 0 0
-0.603585 0.018384 -0.249153 76 0 153
0.445869 -0.059572 -0.138284 76 0 153
0.219252 -0.117405 0.032844 255 0 0
0.073179 0.016373 -0.247142 76 0 153
0.338367 -0.125567 0.091096 255 0 0
0.606077 -0.117405 0.475159 255 0 0
0.149421 -0.054435 -0.143421 76 0 153
0.628624 -0.157060 0.069770 255 0 0
0.009502 -0.172818 0.103430 255 0 0
0.130909 -0.172818 0.432944 255 0 0
-0.518968 0.273811 -0.471668 153 0 76
0.125281 -0.128488 0.551491 127 0 127
-0.359598 0.136833 -0.334689 153 0 76
0.598974 0.055743 -0.253599 76 0 153
0.392355 0.167820 -0.365676 153 0 76
0.053895 0.360728 -0.591498 76 0 153
0.082049 0.119278 -0.350047 76 0 153
0.404307 0.395909 -0.593765 153 0 76
0.518575 0.384405 -0.615175 76 0 153
-0.160695 -0.172818 0.435822 255 0 0
0.307153 -0.108539 0.206627 204 51 127
0.585607 0.237173 -0.435029 76 0 153
-0.037956 0.233961 -0.431817 153 0 76
0.015202 0.437621 -0.668391 76 0 153
-0.257652 -0.087994 -0.089684 127 0 127
0.483272 0.387779 -0.618549 76 0 153
0.028250 -0.126271 0.095016 255 0 0
-0.523943 -0.108539 0.211935 204 51 127
0.483587 -0.136696 0.410351 204 51 127
0.603763 -0.046540 -0.151316 76 0 153
0.552684 -0.117405 0.273164 255 0 0
0.558322 0.118151 -0.316008 76 0 153
0.003120 0.412946 -0.643716 76 0 153
0.407307 -0.117405 0.680638 255 0 0
-0.446900 -0.108539 0.211023 204 51 127
-0.353302 -0.117405 -0.025624 255 0 0
0.117018 -0.172818 0.119657 255 0 0
0.324157 -0.172818 0.076795 255 0 0
-0.463392 0.142451 -0.340307 153 0 76
0.449347 0.323589 -0.554359 76 0 153
-0.479460 0.157797 -0.388567 76 0 153
0.114140 -0.136010 -0.077681 127 0 127
0.615746 -0.117405 0.325579 255 0 0
-0.361370 -0.121456 0.428316 255 0 0
0.530883 0.424790 -0.622646 153 0 76
0.510840 -0.155536 0.414576 255 0 0
-0.566130 -0.172818 0.118133 255 0 0
-0.007904 0.128766 -0.326622 153 0 76
-0.597885 -0.172818 0.079825 255 0 0
0.352939 -0.010891 -0.186965 153 0 76
-0.609022 -0.137168 0.012975 255 0 0
0.264662 -0.172818 0.005238 255 0 0
-0.478432 0.359357 -0.557213 153 0 76
0.182741 -0.010004 -0.187853 153 0 76
0.220314 0.031963 -0.229819 153 0 76
0.443062 -0.108539 0.415052 255 0 0
-0.404202 0.120829 -0.351599 76 0 153
0.082075 -0.117405 0.487448 255 0 0
-0.432114 -0.108539 0.314903 204 51 127
-0.041274 0.443056 -0.640912 153 0 76
0.019800 -0.172818 0.484967 255 0 0
-0.485633 -0.172818 0.082985 255 0 0
0.222606 -0.172818 0.033766 255 0 0
0.449138 -0.117405 0.727270 255 0 0
0.215926 0.008960 -0.206817 153 0 76
0.013188 0.270134 -0.500904 76 0 153
-0.213455 0.222999 -0.453769 76 0 153
0.101251 0.095387 -0.326157 76 0 153
0.374625 0.177842 -0.408612 76 0 153
-0.591799 0.445138 -0.675908 76 0 153
-0.591641 -0.117405 0.092580 255 0 0
0.136028 -0.172818 0.235453 255 0 0
-0.217445 0.189637 -0.420407 76 0 153
-0.142332 -0.135455 -0.077383 127 0 127
0.032226 -0.172818 -0.025095 255 0 0
0.225624 0.252994 -0.450850 153 0 76
0.264540 0.057597 -0.255453 153 0 76
-0.331693 0.380848 -0.611618 76 0 153
0.190527 -0.172818 0.286670 255 0 0
0.582003 -0.105684 -0.137345 127 0 127
-0.033884 -0.172818 0.108257 255 0 0
-0.118384 -0.172818 0.069178 255 0 0
-0.377264 -0.172818 0.488108 255 0 0
0.294232 0.307541 -0.505398 153 0 76
-0.185979 0.121587 -0.319444 153 0 76
0.369377 -0.117405 0.047723 255 0 0
-0.347920 0.041039 -0.271809 76 0 153
-0.039599 -0.172818 0.387420 255 0 0
0.100617 0.439417 -0.670187 76 0 153
-0.524227 -0.172818 0.407828 255 0 0
-0.149153 0.248966 -0.479736 76 0 153
-0.420632 0.420630 -0.618486 153 0 76
-0.384678 -0.117405 0.475282 255 0 0
-0.156224 0.081799 -0.312568 76 0 153
0.287624 -0.172818 0.463854 255 0 0
0.294771 0.194647 -0.392504 153 0 76
0.402533 -0.003150 -0.227620 76 0 153
0.451273 0.253920 -0.451777 153 0 76
-0.497137 -0.108539 0.379530 204 51 127
0.482697 -0.142027 0.493301 255 0 0
0.258707 -0.172818 -0.071113 255 0 0
0.037108 -0.172818 0.565664 255 0 0
-0.600263 -0.117405 0.346193 255 0 0
-0.213645 0.471412 -0.669269 76 0 153
0.376450 0.207711 -0.438481 76 0 153
-0.406404 -0.172818 0.539103 255 0 0
-0.194929 -0.172818 -0.022076 255 0 0
-0.254092 0.298713 -0.529483 76 0 153
-0.532607 0.217959 -0.448729 76 0 153
0.158914 -0.117405 0.081702 255 0 0
-0.095447 -0.172818 0.600824 255 0 0
0.164123 -0.108539 0.116686 204 51 127
0.233934 0.091642 -0.322411 76 0 153
-0.559859 -0.117405 0.142356 255 0 0
-0.560482 0.016672 -0.247442 76 0 153
-0.251136 0.016787 -0.247557 76 0 153
-0.201031 -0.108539 0.377439 204 51 127
-0.023223 0.348444 -0.546300 153 0 76
-0.233909 -0.028762 -0.169095 153 0 76
0.254954 0.380287 -0.578144 153 0 76
0.134946 0.187752 -0.385608 153 0 76
0.408551 -0.172818 0.313258 255 0 0
-0.031245 -0.074639 -0.156131 76 0 153
0.332842 -0.108539 0.229493 204 51 127
-0.189981 -0.048202 -0.182568 76 0 153
-0.090553 -0.172818 0.019054 255 0 0
-0.112025 -0.172818 0.220863 255 0 0
0.135882 -0.108539 0.360925 204 51 127
-0.105402 -0.018378 -0.179479 153 0 76
0.171412 0.041745 -0.239601 153 0 76
0.079809 -0.004734 -0.226036 76 0 153
0.322812 -0.021520 -0.176337 153 0 76
0.111098 -0.084850 -0.097843 127 0 127
0.151886 -0.172818 0.513587 255 0 0
0.635636 -0.164071 0.210000 255 0 0
0.060206 -0.117405 0.076557 255 0 0
0.404070 -0.117405 0.709855 255 0 0
0.452258 0.111414 -0.309270 153 0 76
-0.618745 -0.155102 -0.040355 255 0 0
0.278130 -0.145031 -0.125038 127 0 127
-0.121550 -0.172818 0.130954 255 0 0
0.566996 -0.046357 -0.184413 76 0 153
0.385418 -0.172818 0.496788 255 0 0
0.368349 -0.108539 0.150554 204 51 127
0.170208 -0.126271 0.430408 255 0 0
-0.252406 -0.172818 0.561202 255 0 0
0.439890 -0.108539 0.184821 204 51 127
0.403767 -0.011485 -0.186371 153 0 76
0.587773 -0.136696 0.416204 255 0 0
0.269314 -0.097127 -0.132606 76 0 153
-0.160025 -0.172818 0.401877 255 0 0
-0.128430 -0.128488 0.566563 127 0 127
-0.310673 0.129939 -0.360709 76 0 153
-0.450547 -0.100357 -0.076868 127 0 127
-0.299810 0.299051 -0.529821 76 0 153
0.142410 0.139508 -0.370278 76 0 153
-0.436441 0.033240 -0.264010 76 0 153
0.558609 -0.172818 0.645084 255 0 0
0.474632 -0.050917 -0.179853 76 0 153
0.461320 -0.172818 0.212518 255 0 0
0.219764 -0.040308 -0.157549 153 0 76
-0.043623 -0.001874 -0.195982 153 0 76
0.400630 0.332020 -0.529876 153 0 76
-0.015558 -0.128488 0.501197 255 0 0
0.448623 0.373327 -0.604097 76 0 153
-0.217264 -0.172818 0.528936 255 0 0
0.619772 -0.162499 0.673982 255 0 0
-0.334417 0.026400 -0.224256 153 0 76
-0.441821 0.433745 -0.664515 76 0 153
-0.107979 0.022124 -0.219980 153 0 76
-0.446118 0.073594 -0.271450 153 0 76
0.339774 -0.172818 0.124006 255 0 0
0.513128 0.270595 -0.501364 76 0 153
-0.024055 -0.172818 0.672313 255 0 0
0.089285 0.249620 -0.447476 153 0 76
0.324454 0.290802 -0.488658 153 0 76
0.582782 0.173635 -0.371491 76 0 153
0.348178 0.307482 -0.538252 76 0 153
0.340681 -0.172818 0.236795 255 0 0
0.010063 0.391132 -0.621902 76 0 153
-0.464180 -0.108539 0.421403 204 51 127
-0.218398 0.228475 -0.426331 153 0 76
0.274170 -0.172818 0.512738 255 0 0
0.423394 -0.172818 -0.086269 255 0 0
-0.173625 -0.142439 -0.127966 127 0 127
0.245713 -0.108539 0.368780 204 51 127
-0.105233 -0.108539 0.167145 204 51 127
0.426276 0.185958 -0.383815 153 0 76
0.167297 -0.128488 0.659203 255 0 0
0.517963 0.091584 -0.322354 76 0 153
-0.497680 -0.126271 0.432117 255 0 0
-0.191311 -0.172818 0.344492 255 0 0
0.508951 0.013121 -0.243891 76 0 153
-0.362802 -0.044851 -0.185919 76 0 153
0.378927 0.404851 -0.635620 76 0 153
0.495820 0.141556 -0.372326 76 0 153
-0.430353 -0.117405 0.548725 255 0 0
0.578403 0.456408 -0.687178 76 0 153
-0.303355 -0.172818 0.328086 255 0 0
0.384378 -0.172818 0.259462 255 0 0
-0.512082 0.401602 -0.599459 153 0 76
-0.621281 0.295343 -0.493200 76 0 153
-0.240685 -0.117405 -0.016827 255 0 0
0.314478 -0.022149 -0.208621 76 0 153
0.054582 0.043181 -0.241037 153 0 76
0.028866 -0.172818 0.682009 255 0 0
-0.065869 -0.116297 0.459087 255 0 0
-0.055400 -0.172818 0.582588 255 0 0
0.121905 -0.172818 0.339677 255 0 0
-0.451079 -0.117405 0.672448 255 0 0
-0.212213 0.394319 -0.592176 153 0 76
-0.183302 -0.011649 -0.186208 153 0 76
-0.259295 0.187102 -0.417872 76 0 153
-0.350496 -0.172818 0.117453 255 0 0
-0.354305 0.177152 -0.407922 76 0 153
-0.061715 0.361763 -0.592533 76 0 153
-0.208650 -0.107561 -0.123208 76 0 153
0.024664 -0.094852 -0.080800 127 0 127
-0.069680 -0.172818 0.183197 255 0 0
0.003610 -0.172818 0.054473 255 0 0
0.355557 -0.069568 -0.128288 76 0 153
0.511515 -0.172818 0.083668 255 0 0
-0.366525 0.425771 -0.656541 76 0 153
0.415564 0.077606 -0.275462 153 0 76
-0.183799 -0.117405 0.579274 255 0 0
0.612267 0.185693 -0.383550 76 0 153
-0.365481 0.203951 -0.401807 153 0 76
-0.205461 0.063774 -0.294544 76 0 153
0.081542 0.396073 -0.593929 153 0 76
0.256102 0.107607 -0.338376 76 0 153
-0.241849 -0.108539 0.171277 204 51 127
0.372075 0.271450 -0.469307 153 0 76
-0.362552 0.487768 -0.685625 76 0 153
-0.248142 -0.069239 -0.128617 76 0 153
0.305024 -0.172818 0.175498 255 0 0
0.554118 0.340834 -0.538691 153 0 76
-0.265280 0.149674 -0.347530 153 0 76
-0.251490 0.339210 -0.569980 76 0 153
-0.494320 -0.172818 0.271473 255 0 0
-0.086289 -0.147527 0.733245 255 0 0
-0.063609 -0.117405 -0.047948 255 0 0
0.473541 -0.117405 0.452722 255 0 0
0.254325 -0.172818 0.422923 255 0 0
0.284612 0.471252 -0.669108 76 0 153
0.638961 -0.119044 -0.075597 127 0 127
0.108939 -0.078880 -0.151890 76 0 153
0.635636 -0.168155 0.479076 255 0 0
-0.123568 -0.108539 0.428143 255 0 0
0.408542 0.089696 -0.320466 76 0 153
-0.318771 -0.108539 0.328782 204 51 127
0.557412 0.386440 -0.584296 153 0 76
-0.254327 0.228860 -0.459630 76 0 153
-0.600788 0.054770 -0.285540 76 0 153
-0.327225 -0.172818 0.461387 255 0 0
-0.485042 0.271713 -0.469570 153 0 76
-0.577800 -0.143911 -0.126403 127 0 127
-0.447633 0.410709 -0.641479 76 0 153
-0.617498 0.440258 -0.638114 76 0 153
0.000621 0.220813 -0.451583 76 0 153
0.562097 -0.117405 -0.052189 255 0 0
0.565073 -0.128144 0.509144 255 0 0
0.221658 -0.022493 -0.208277 76 0 153
-0.137585 -0.172818 0.531195 255 0 0
-0.179652 -0.109392 -0.073140 127 0 127
-0.604993 -0.172818 0.362954 255 0 0
0.420328 0.415517 -0.646287 76 0 153
0.470091 -0.136713 0.733245 255 0 0
0.278685 -0.117405 0.554637 255 0 0
-0.395136 0.265743 -0.463599 153 0 76
0.498401 -0.137640 0.343927 255 0 0
-0.038645 -0.106707 -0.124063 76 0 153
-0.262144 0.445782 -0.676552 76 0 153
-0.390437 -0.108539 0.353883 204 51 127
0.033776 -0.140243 -0.081206 127 0 127
-0.077504 0.141410 -0.339267 153 0 76
0.181921 0.070633 -0.301403 76 0 153
-0.491878 -0.108539 0.126270 204 51 127
-0.344624 0.259792 -0.457648 153 0 76
-0.534214 0.199931 -0.397788 153 0 76
-0.596120 0.013958 -0.211815 76 0 153
0.370956 0.211662 -0.409518 153 0 76
-0.492703 0.049093 -0.279862 76 0 153
0.549481 0.200265 -0.431034 76 0 153
0.341983 0.344917 -0.575687 76 0 153
-0.619615 0.351930 -0.549787 76 0 153
0.067741 -0.137333 -0.132753 127 0 127
-0.071416 -0.172818 0.306112 255 0 0
0.571648 0.069048 -0.266905 76 0 153
0.257872 -0.117405 0.464653 255 0 0
0.542618 0.140438 -0.338295 153 0 76
-0.044004 0.020087 -0.217943 153 0 76
-0.505697 0.284979 -0.515749 76 0 153
-0.494660 0.029257 -0.227114 153 0 76
-0.237492 -0.117405 0.550770 255 0 0
0.463723 -0.148503 -0.092821 127 0 127
-0.055155 0.280419 -0.511189 76 0 153
0.615891 -0.117405 0.059395 255 0 0
-0.097641 0.434297 -0.665067 76 0 153
-0.424184 -0.108539 0.346014 204 51 127
-0.591688 -0.117405 0.392158 255 0 0
0.286763 -0.117405 0.077087 255 0 0
-0.076712 -0.123927 0.713452 255 0 0
-0.358389 -0.172818 0.258276 255 0 0
-0.348811 -0.117405 0.518668 255 0 0
0.584867 -0.117405 0.004330 255 0 0
-0.369786 -0.075842 -0.122015 76 0 153
-0.285965 0.063771 -0.294541 76 0 153
-0.226144 -0.137459 -0.132676 127 0 127
0.600649 0.057163 -0.287933 76 0 153
0.112607 0.252539 -0.483309 76 0 153
0.448302 -0.172818 0.561386 255 0 0
0.450854 -0.115207 -0.139272 127 0 127
-0.286950 -0.172818 0.628121 255 0 0
-0.288055 -0.117405 0.470076 255 0 0
-0.257487 -0.108539 0.230365 204 51 127
0.002685 -0.108539 0.139246 204 51 127
0.206498 -0.117405 0.089991 255 0 0
0.324548 -0.070768 -0.160002 76 0 153
-0.150253 -0.172818 0.666446 255 0 0
-0.062754 -0.122714 0.091096 255 0 0
-0.294040 -0.172818 0.187581 255 0 0
0.196505 -0.124911 0.604969 255 0 0
0.184003 0.314205 -0.512061 153 0 76
0.630424 0.246668 -0.444524 76 0 153
0.146202 -0.172818 0.717225 255 0 0
-0.523375 0.323712 -0.521568 153 0 76
-0.434188 -0.172818 0.265286 255 0 0
0.091438 -0.128488 0.636423 127 0 127
-0.312767 -0.053269 -0.177500 76 0 153
0.461350 -0.172818 0.327173 255 0 0
-0.547106 0.248701 -0.479471 76 0 153
-0.538496 -0.126018 0.367982 255 0 0
0.232326 -0.172818 0.732195 255 0 0
-0.271791 0.253118 -0.450974 153 0 76
0.561969 -0.084541 -0.099156 127 0 127
0.044658 0.271294 -0.502063 76 0 153
0.426487 -0.120667 -0.105701 255 0 0
-0.031282 0.323818 -0.521675 153 0 76
0.147924 -0.057297 -0.173473 76 0 153
-0.124138 0.399984 -0.630754 76 0 153
-0.538319 -0.118002 0.733245 255 0 0
0.202559 0.339981 -0.537838 153 0 76
-0.052538 0.220906 -0.451676 76 0 153
0.570358 0.272425 -0.503195 76 0 153
-0.605408 0.178916 -0.376773 76 0 153
0.568101 0.022937 -0.253707 76 0 153
0.102248 0.171064 -0.401834 76 0 153
-0.163422 0.229371 -0.460141 76 0 153
0.379167 -0.062845 -0.167925 76 0 153
-0.115394 0.325234 -0.523090 153 0 76
-0.289846 0.159490 -0.357347 153 0 76
-0.354970 -0.074434 -0.156336 76 0 153
-0.352606 -0.046817 -0.151040 76 0 153
-0.476257 0.099618 -0.297475 153 0 76
-0.194170 0.264795 -0.462652 153 0 76
-0.155919 -0.118561 0.659766 255 0 0
0.525636 -0.151611 0.343927 255 0 0
0.415054 -0.108539 0.286983 204 51 127
0.401841 -0.172818 0.709062 255 0 0
-0.511390 -0.056448 -0.141409 76 0 153
0.614405 -0.172818 0.256302 255 0 0
-0.109381 -0.108539 0.335859 204 51 127
-0.294258 -0.000378 -0.230392 76 0 153
0.196505 -0.121394 0.502000 255 0 0
-0.154113 0.349310 -0.580080 76 0 153
-0.591949 -0.172818 0.462778 255 0 0
0.599688 0.226767 -0.457537 76 0 153
-0.410111 0.446499 -0.644355 76 0 153
0.262966 0.422232 -0.620089 153 0 76
-0.475586 0.357009 -0.587778 76 0 153
-0.158897 -0.108539 0.282149 204 51 127
-0.485405 -0.117405 0.580433 255 0 0
0.568319 0.429616 -0.660385 76 0 153
0.252321 -0.014636 -0.216134 76 0 153
0.303776 -0.081853 -0.116003 127 0 127
-0.080944 0.227366 -0.458136 76 0 153
-0.243744 0.063591 -0.261448 153 0 76
-0.112111 0.467398 -0.698168 76 0 153
0.393167 0.024272 -0.255042 76 0 153
0.185544 -0.172818 0.127254 255 0 0
0.450861 0.144788 -0.342645 153 0 76
0.519552 0.041171 -0.239028 153 0 76
0.174311 -0.172818 0.723575 255 0 0
-0.409594 -0.126271 0.433372 255 0 0
0.059257 -0.128488 0.590220 127 0 127
0.016206 0.064073 -0.294842 76 0 153
0.312346 0.204407 -0.435177 76 0 153
0.137248 0.128106 -0.325963 153 0 76
-0.372412 0.333808 -0.531664 153 0 76
-0.305554 0.199632 -0.430402 76 0 153
0.374101 0.326730 -0.557500 76 0 153
-0.041394 -0.103247 -0.075081 127 0 127
-0.504419 0.408452 -0.639221 76 0 153
0.131952 -0.137399 0.733245 255 0 0
-0.409355 -0.107736 -0.073638 127 0 127
0.152567 0.208142 -0.405999 153 0 76
0.253839 -0.076614 -0.121243 127 0 127
-0.393800 0.390551 -0.588407 153 0 76
-0.520570 0.449137 -0.646993 76 0 153
-0.179238 0.175817 -0.373674 153 0 76
0.209935 -0.148128 -0.119280 127 0 127
-0.528999 0.081116 -0.311885 76 0 153
-0.418551 0.031413 -0.229269 153 0 76
0.503885 0.352915 -0.550772 153 0 76
0.558036 -0.155536 0.435924 255 0 0
-0.272056 -0.172818 0.132131 255 0 0
-0.201342 -0.172818 -0.101596 255 0 0
0.460608 -0.172818 -0.037547 255 0 0
0.381950 -0.168346 0.733245 255 0 0
0.441416 -0.172818 0.720490 255 0 0
0.051493 0.473193 -0.671050 76 0 153
0.301766 -0.084241 -0.146529 76 0 153
0.394385 -0.134627 0.347691 204 51 127
-0.420775 0.063237 -0.261093 153 0 76
0.620218 -0.030685 -0.200085 76 0 153
0.484879 -0.172818 0.680680 255 0 0
-0.459320 -0.126271 0.099916 255 0 0
-0.379016 -0.117405 0.714886 255 0 0
-0.371594 0.128355 -0.359125 76 0 153
0.127052 -0.108539 0.406901 204 51 127
-0.164719 0.086689 -0.284546 153 0 76
0.290300 -0.117405 0.643333 255 0 0
-0.033395 0.047337 -0.278107 76 0 153
0.351596 -0.172818 0.540890 255 0 0
-0.368203 0.078177 -0.276033 153 0 76
-0.157801 -0.172818 0.470167 255 0 0
0.175395 0.452034 -0.649890 76 0 153
0.552676 -0.117405 0.479705 255 0 0
-0.313761 0.392213 -0.590069 153 0 76
0.503092 -0.172818 0.023820 255 0 0
0.500014 -0.108539 0.222676 204 51 127
0.269624 0.316790 -0.514646 153 0 76
0.488317 -0.172818 0.373162 255 0 0
-0.272521 -0.117405 0.030574 255 0 0
-0.333019 -0.117405 0.495648 255 0 0
0.612643 0.343098 -0.540954 76 0 153
-0.263773 0.118524 -0.349294 76 0 153
0.497015 0.065063 -0.262920 153 0 76
0.311675 0.458793 -0.692684 153 76 0
-0.427359 -0.108539 0.264000 204 51 127
0.196086 0.396011 -0.593867 153 0 76
0.411397 0.040075 -0.237931 153 0 76
-0.298731 -0.108539 0.384664 204 51 127
-0.271428 0.022040 -0.219896 153 0 76
-0.268649 0.210935 -0.441705 76 0 153
0.149948 0.065325 -0.296095 76 0 153
-0.236354 -0.172818 0.718373 255 0 0
0.543095 -0.128144 0.527510 255 0 0
-0.322312 0.428729 -0.626586 153 0 76
0.057029 0.402122 -0.632891 76 0 153
-0.339424 -0.172818 0.362581 255 0 0
-0.552266 -0.117405 0.067684 255 0 0
0.412596 0.220671 -0.451441 76 0 153
0.564614 -0.162499 0.353933 255 0 0
0.066854 0.114028 -0.311885 153 0 76
-0.133955 -0.172818 0.560970 255 0 0
-0.041847 -0.067545 -0.130311 76 0 153
-0.291342 0.455693 -0.653549 76 0 153
0.322623 -0.165917 -0.105701 255 0 0
0.156111 -0.108539 0.245421 204 51 127
0.307558 -0.172818 -0.052841 255 0 0
0.537324 -0.172818 -0.083522 255 0 0
0.391252 0.275156 -0.505925 76 0 153
-0.044371 -0.152607 0.733245 255 0 0
0.105659 0.469003 -0.666860 76 0 153
