ply
format ascii 1.0
element vertex 1248
property float x
property float y
property float z
property uchar red
property uchar green
property uchar blue
end_header
-0.269132 0.430554 -0.365027 76 0 153
-0.239199 0.101749 -0.290327 76 0 153
0.155512 0.611652 -0.406237 76 0 153
-0.236928 0.718426 -0.421212 76 0 153
-0.274664 -0.192573 -0.072269 127 127 0
-0.270039 -0.112865 -0.241360 76 0 153
-0.345443 0.445054 -0.335301 153 76 0
0.380712 0.475615 -0.343167 153 76 0
-0.412250 -0.192573 0.077202 127 127 0
0.392915 -0.189287 0.606702 0 127 127
0.433304 -0.005471 -0.232715 153 76 0
-0.133031 -0.153331 -0.171761 76 0 153
-0.557294 -0.247553 0.135200 0 127 127
-0.370856 0.179279 -0.275891 153 76 0
0.562574 -0.247553 0.207744 0 127 127
0.332980 -0.183707 0.100071 127 127 0
0.367950 -0.179428 0.350729 127 127 0
0.058611 -0.175663 0.038961 127 127 0
0.464756 -0.247553 -0.137234 0 127 127
0.481324 0.026590 -0.273069 76 0 153
-0.381885 0.125575 -0.295625 76 0 153
0.313408 -0.247553 0.255243 0 127 127
0.163760 0.385749 -0.354745 76 0 153
-0.041929 -0.192573 -0.034040 127 127 0
-0.067356 0.513358 -0.350690 153 76 0
-0.121931 -0.247553 0.488435 0 127 127
0.644126 -0.216907 -0.096800 0 127 127
-0.575877 -0.192400 0.177680 127 127 0
0.260394 0.165283 -0.304631 76 0 153
-0.068798 -0.183707 -0.054043 127 127 0
-0.095112 0.389577 -0.322546 153 76 0
0.436841 0.373760 -0.319958 153 76 0
0.579345 -0.247553 0.129115 0 127 127
0.607890 -0.189450 0.629776 0 127 127
0.177818 -0.183707 -0.061666 127 127 0
-0.045563 -0.247492 -0.172820 0 127 127
0.434247 0.024400 -0.239504 153 76 0
0.367387 -0.189287 0.641822 0 127 127
-0.506685 0.201770 -0.313070 76 0 153
-0.539227 0.350074 -0.304692 153 76 0
-0.624853 -0.096554 -0.230094 76 0 153
-0.495948 0.238592 -0.321445 76 0 153
-0.461688 -0.192573 0.073200 127 127 0
0.614301 -0.236943 0.688504 0 127 127
-0.609522 -0.245645 0.256545 0 127 127
-0.014481 -0.247553 -0.067233 0 127 127
-0.369467 0.158922 -0.271177 153 76 0
0.166978 0.033427 -0.241555 153 76 0
0.490584 0.609055 -0.367609 76 0 153
-0.404631 0.223940 -0.285976 153 76 0
0.274027 -0.174842 0.143883 127 127 0
-0.510028 -0.192573 0.247141 127 127 0
-0.083069 -0.247553 0.349537 0 127 127
-0.395846 -0.192573 0.156556 127 127 0
0.240548 -0.125612 -0.238490 76 0 153
-0.185290 0.023271 -0.272315 76 0 153
0.282845 -0.174842 0.159725 127 127 0
0.574217 -0.116754 -0.240476 76 0 153
0.339411 0.241634 -0.288969 153 76 0
0.235723 -0.098193 -0.244697 76 0 153
0.214576 -0.189287 0.219186 0 127 127
-0.618567 -0.243131 0.629761 0 127 127
-0.037649 -0.192573 0.191008 127 127 0
0.210470 -0.183707 0.149186 127 127 0
0.563102 0.429022 -0.364666 76 0 153
-0.082322 -0.192573 0.280381 127 127 0
0.017224 -0.183707 0.113629 127 127 0
0.273490 0.384291 -0.354414 76 0 153
-0.310935 -0.247365 -0.190382 0 127 127
0.455262 -0.183707 -0.046594 127 127 0
-0.279651 0.115521 -0.260780 153 76 0
-0.068236 0.609519 -0.405764 76 0 153
-0.060844 -0.107989 -0.242470 76 0 153
0.524998 0.077961 -0.284916 76 0 153
-0.083351 -0.177114 -0.136377 0 127 127
0.290483 -0.192573 0.081839 127 127 0
0.470300 -0.247553 0.085989 0 127 127
-0.004701 -0.192219 0.700762 0 127 127
-0.145378 -0.176880 -0.007219 127 127 0
-0.311467 -0.183707 0.380511 127 127 0
-0.180809 -0.183707 0.039812 127 127 0
-0.435722 -0.174842 0.279866 127 127 0
-0.108796 -0.192573 0.374295 127 127 0
-0.532356 -0.178059 0.040551 127 127 0
-0.586285 -0.189436 0.615943 0 127 127
0.067599 -0.183707 0.355707 127 127 0
-0.267185 -0.189423 0.409350 0 127 127
0.187298 -0.142288 -0.183726 76 0 153
0.185095 -0.247553 0.056868 0 127 127
-0.498482 -0.033062 -0.259672 76 0 153
0.345738 0.531907 -0.387983 76 0 153
-0.433268 -0.247553 -0.140730 0 127 127
0.109110 -0.174842 0.219685 127 127 0
0.105996 -0.186133 0.393010 127 127 0
-0.188698 -0.192573 0.281638 127 127 0
0.627496 0.629408 -0.368370 76 0 153
0.254713 0.599508 -0.366576 153 76 0
0.050231 0.721006 -0.412648 76 0 153
0.111567 -0.247553 -0.018870 0 127 127
0.439373 -0.109933 -0.242029 76 0 153
0.628931 -0.215872 -0.213950 0 127 127
0.141778 -0.189287 0.606465 76 0 153
-0.393264 0.511783 -0.350332 153 76 0
-0.560148 -0.192573 0.282054 127 127 0
-0.398481 -0.013247 -0.264177 76 0 153
0.608231 -0.189957 0.207490 0 127 127
0.554825 -0.107017 -0.242691 76 0 153
0.338625 -0.189371 0.678051 0 127 127
0.494039 -0.189287 0.411152 0 127 127
-0.040354 -0.174842 0.150406 127 127 0
0.615427 0.043457 -0.276649 76 0 153
-0.423451 -0.189287 0.422008 0 127 127
0.472588 -0.247523 -0.168542 0 127 127
0.379789 -0.247553 0.008923 0 127 127
-0.339437 0.069858 -0.250492 153 76 0
0.016235 -0.144014 -0.181631 76 0 153
0.267600 0.426495 -0.331888 153 76 0
-0.584842 0.347734 -0.346163 76 0 153
-0.315829 -0.190076 -0.042812 0 127 127
0.563405 -0.192573 0.064359 127 127 0
-0.426460 -0.183707 0.384800 127 127 0
-0.256390 0.005197 -0.268283 76 0 153
-0.628068 -0.163704 -0.198608 0 127 127
-0.309478 -0.189287 0.572078 0 127 127
0.254886 -0.189287 0.363066 0 127 127
0.298569 -0.183707 0.168861 127 127 0
-0.282898 -0.247553 0.116540 0 127 127
-0.311695 -0.057002 -0.254229 76 0 153
0.035318 -0.093415 -0.205311 153 76 0
-0.582354 -0.247514 0.335403 0 127 127
0.553426 0.528319 -0.345147 153 76 0
0.078986 -0.174842 0.006079 127 127 0
0.430479 -0.174842 0.329315 127 127 0
-0.135637 0.007285 -0.268745 76 0 153
-0.061131 -0.247553 0.054533 0 127 127
-0.386381 -0.176218 0.356077 127 127 0
0.604363 -0.189871 0.006438 0 127 127
-0.408340 -0.183707 0.236660 127 127 0
-0.024255 0.557398 -0.393941 76 0 153
-0.623135 0.668314 -0.394930 76 0 153
-0.240709 0.686812 -0.423198 76 0 153
0.075895 -0.247553 0.176243 0 127 127
0.088913 -0.142132 -0.184499 76 0 153
-0.239143 -0.247553 0.570176 0 127 127
-0.191655 0.116724 -0.260543 153 76 0
0.055216 -0.247433 -0.180998 0 127 127
0.327115 -0.189287 0.193145 0 127 127
-0.240078 -0.129027 -0.237734 76 0 153
0.155730 -0.247553 0.308678 0 127 127
-0.296249 -0.183707 0.012746 127 127 0
0.482677 -0.009108 -0.231818 153 76 0
-0.527065 -0.192573 0.156331 127 127 0
0.619602 0.454896 -0.370124 76 0 153
0.161633 -0.247553 -0.139310 0 127 127
0.638535 0.052273 -0.242875 76 0 153
-0.019021 -0.183707 0.185871 127 127 0
0.492140 -0.183707 0.000691 127 127 0
-0.323489 -0.205894 -0.223586 0 127 127
-0.100294 -0.247553 0.009426 0 127 127
0.073725 -0.192573 0.337993 127 127 0
-0.575070 -0.174017 -0.143242 0 127 127
0.525089 -0.247553 0.631253 0 127 127
-0.443079 -0.247553 0.645682 0 127 127
-0.560059 0.115950 -0.248063 153 76 0
0.273792 -0.189561 0.610673 0 127 127
-0.490977 0.282351 -0.331227 76 0 153
-0.458942 -0.183707 0.379445 127 127 0
0.281666 0.047739 -0.277878 76 0 153
-0.308548 0.209897 -0.314919 76 0 153
-0.244024 -0.247553 0.398941 0 127 127
-0.026955 -0.247553 0.311793 0 127 127
-0.589626 0.611059 -0.360005 76 0 153
0.168717 -0.189290 0.662326 0 127 127
0.036178 -0.247553 0.279748 0 127 127
0.382949 -0.192573 0.319857 127 127 0
0.615222 0.706080 -0.406530 76 0 153
0.644144 -0.221813 0.070569 0 127 127
0.027948 -0.210851 -0.223218 0 127 127
0.302697 0.418396 -0.330239 153 76 0
-0.188304 -0.247553 -0.043910 0 127 127
0.497683 0.577109 -0.398422 76 0 153
0.507383 -0.247553 0.076847 0 127 127
0.577660 -0.192573 -0.058931 127 127 0
0.539843 -0.192573 0.028042 127 127 0
-0.197603 -0.189760 0.488969 0 127 127
0.054509 -0.247553 0.079841 0 127 127
-0.251643 -0.175645 -0.139634 0 127 127
-0.393764 -0.226530 0.713323 0 127 127
-0.361162 0.146669 -0.300399 76 0 153
-0.355614 -0.179526 0.027921 127 127 0
-0.185735 -0.190287 -0.025159 0 127 127
0.383544 -0.183707 0.178409 127 127 0
0.628982 0.219268 -0.272063 76 0 153
-0.002002 -0.189511 0.634137 153 0 76
-0.494777 0.413808 -0.325845 153 76 0
-0.214739 -0.247553 -0.118843 0 127 127
-0.359717 -0.158946 -0.231043 76 0 153
-0.383603 -0.189288 0.649276 0 127 127
0.537983 -0.247553 0.286638 0 127 127
0.606979 0.187629 -0.309697 76 0 153
0.085885 -0.247553 0.070001 0 127 127
0.352095 0.624621 -0.409113 76 0 153
-0.525797 -0.183707 -0.052878 127 127 0
-0.569292 0.344350 -0.299076 76 0 153
-0.179013 -0.072787 -0.250549 76 0 153
0.289351 -0.192573 0.344086 127 127 0
0.267344 0.250780 -0.324158 76 0 153
0.536846 -0.189576 0.495777 0 127 127
0.047674 -0.247553 -0.138332 0 127 127
0.602890 0.147648 -0.254853 76 0 153
-0.098630 0.460468 -0.371900 76 0 153
0.374242 -0.236929 -0.216576 0 127 127
0.168190 0.101541 -0.257173 153 76 0
0.584447 -0.189664 0.686260 0 127 127
0.459184 -0.183707 0.132712 127 127 0
-0.198923 -0.183707 0.022153 127 127 0
0.363412 -0.171932 -0.148194 0 127 127
-0.473948 -0.192573 0.127058 127 127 0
0.104471 -0.244043 0.704335 0 127 127
0.023867 -0.183707 -0.046533 127 127 0
-0.145397 -0.247553 0.191435 0 127 127
-0.214429 0.266084 -0.327538 76 0 153
-0.201702 -0.247553 0.079220 0 127 127
-0.581076 -0.189686 -0.054042 0 127 127
-0.442240 -0.174842 0.173254 127 127 0
-0.409271 -0.174842 0.021462 127 127 0
-0.319525 0.578065 -0.364842 153 76 0
0.228403 -0.192573 0.247407 127 127 0
0.282663 -0.189812 0.546944 0 127 127
-0.468065 -0.175110 0.143614 127 127 0
0.405130 0.110777 -0.292340 76 0 153
-0.180732 0.313708 -0.338413 76 0 153
-0.624475 -0.234506 -0.167281 0 127 127
-0.628276 -0.214796 0.026909 0 127 127
0.309874 -0.247551 0.651776 0 127 127
-0.508879 -0.192573 0.354247 127 127 0
0.359749 -0.247519 0.673961 0 127 127
0.201410 -0.041487 -0.224669 153 76 0
0.008212 0.048544 -0.245057 153 76 0
-0.330110 -0.183707 0.072802 127 127 0
-0.166379 -0.247553 0.586321 0 127 127
0.026977 -0.242948 -0.210435 0 127 127
0.014460 -0.174842 0.195906 127 127 0
0.125988 0.045425 -0.277352 76 0 153
0.174280 -0.183707 0.277688 127 127 0
-0.092643 0.639426 -0.412449 76 0 153
-0.601233 0.589797 -0.355331 76 0 153
-0.035659 -0.247553 0.279419 0 127 127
-0.258349 -0.181427 0.036736 127 127 0
0.061074 -0.183707 0.017901 127 127 0
0.591055 -0.098876 -0.198717 76 0 153
0.599586 0.714546 -0.411853 76 0 153
-0.139684 0.196930 -0.311968 76 0 153
-0.291579 0.358023 -0.348577 76 0 153
-0.152380 -0.247553 0.171036 0 127 127
0.011562 -0.192573 0.285886 127 127 0
-0.056818 -0.183707 0.180647 127 127 0
0.342742 0.567760 -0.363230 153 76 0
-0.190503 -0.207163 -0.223491 0 127 127
0.576838 -0.183707 0.302023 127 127 0
-0.289844 -0.192573 0.385763 127 127 0
0.236307 -0.180226 -0.128509 0 127 127
-0.499770 0.329601 -0.308003 153 76 0
-0.615678 -0.244018 0.164696 0 127 127
0.077424 -0.189288 0.254213 0 127 127
0.464981 0.556632 -0.361511 153 76 0
0.161419 -0.247553 0.255164 0 127 127
-0.211315 -0.245712 0.699196 0 127 127
-0.022798 -0.190289 -0.007592 0 127 127
-0.013707 0.671093 -0.373338 76 0 153
-0.623312 0.241514 -0.291647 76 0 153
-0.188405 -0.235554 -0.217605 0 127 127
0.202702 -0.247553 0.556209 0 127 127
-0.126035 -0.183707 -0.058122 127 127 0
0.089324 0.477230 -0.342533 153 76 0
-0.279183 0.527865 -0.387064 76 0 153
0.172920 0.282656 -0.298852 153 76 0
0.412459 0.321179 -0.340175 76 0 153
-0.039922 -0.189653 0.688679 0 127 127
0.222826 0.302064 -0.303147 153 76 0
0.637989 0.361128 -0.338760 76 0 153
0.021077 0.382934 -0.354104 76 0 153
-0.540340 -0.169011 -0.154338 0 127 127
-0.627350 -0.203613 -0.186999 0 127 127
0.614551 0.533922 -0.388323 76 0 153
-0.051662 -0.220697 0.713322 0 127 127
-0.384246 -0.189454 0.544909 0 127 127
-0.395948 0.621506 -0.368104 76 0 153
-0.628189 -0.221388 -0.056866 0 127 127
-0.323857 -0.190289 0.284707 0 127 127
-0.129735 -0.247459 -0.177312 0 127 127
-0.170127 -0.176380 0.118594 127 127 0
-0.628178 -0.222234 0.214293 0 127 127
-0.289486 -0.247553 -0.031018 0 127 127
0.644093 -0.216186 0.166903 0 127 127
0.159593 -0.192573 0.143949 127 127 0
0.375877 0.048528 -0.245053 153 76 0
-0.254805 -0.190144 -0.037167 0 127 127
-0.602323 0.661462 -0.371563 76 0 153
0.453704 0.648275 -0.414461 76 0 153
-0.102817 -0.174842 0.216471 127 127 0
0.414358 -0.077035 -0.212846 153 76 0
0.491726 -0.119144 -0.239933 76 0 153
-0.006401 -0.178677 0.209390 127 127 0
0.463504 -0.192573 0.396381 127 127 0
0.129203 -0.247553 0.012353 0 127 127
-0.506415 -0.247553 -0.005743 0 127 127
-0.462405 -0.189715 -0.069877 0 127 127
0.518443 -0.192573 0.273533 127 127 0
0.230907 -0.192573 -0.073823 127 127 0
0.558983 -0.247553 0.584526 0 127 127
-0.295971 -0.243412 -0.208572 0 127 127
0.532122 -0.192573 0.362644 127 127 0
-0.293573 -0.189440 0.511544 0 127 127
0.029341 0.330132 -0.342262 76 0 153
-0.532642 0.518081 -0.384835 76 0 153
-0.296950 -0.192573 0.314454 127 127 0
0.459769 -0.183707 -0.084127 127 127 0
-0.091049 -0.190288 0.058527 0 127 127
-0.247781 0.318432 -0.339527 76 0 153
0.565250 0.223583 -0.273676 76 0 153
-0.509213 0.494882 -0.379561 76 0 153
-0.628143 -0.224829 0.579319 0 127 127
0.350183 -0.183707 0.038704 127 127 0
0.546024 -0.245830 0.698419 0 127 127
0.485552 -0.189450 0.467903 0 127 127
-0.295989 -0.183707 0.237900 127 127 0
0.040315 -0.183707 0.184135 127 127 0
-0.519029 -0.183707 -0.072495 127 127 0
-0.574084 -0.247553 0.365176 0 127 127
-0.033807 -0.190288 0.246824 0 127 127
-0.329819 0.633715 -0.411149 76 0 153
0.375125 0.497964 -0.380262 76 0 153
0.527918 -0.247553 0.222969 0 127 127
0.216293 -0.070186 -0.215847 153 76 0
-0.151803 -0.192573 0.302132 127 127 0
-0.146626 -0.247553 -0.124732 0 127 127
0.539925 -0.192573 -0.000312 127 127 0
-0.219973 -0.192573 0.136776 127 127 0
-0.625632 0.416639 -0.331383 76 0 153
-0.138012 -0.189367 0.521980 76 0 153
-0.060191 -0.174842 0.263213 127 127 0
-0.451917 -0.176728 -0.227261 76 0 153
0.289436 0.624975 -0.368334 76 0 153
-0.226723 -0.189662 0.304049 0 127 127
0.216249 -0.192573 -0.064585 127 127 0
0.116754 -0.156294 -0.169705 76 0 153
-0.609817 -0.245567 0.426847 0 127 127
0.511576 -0.189298 -0.074379 0 127 127
-0.317885 0.432930 -0.332544 153 76 0
0.009369 -0.182825 -0.226171 76 0 153
0.282936 0.030659 -0.240926 153 76 0
0.579432 -0.247552 0.624038 0 127 127
0.644257 -0.213489 -0.145684 0 127 127
-0.151995 0.315821 -0.338911 76 0 153
0.007932 -0.247553 0.498885 0 127 127
0.288653 0.622792 -0.408710 76 0 153
-0.279293 -0.189475 0.492125 0 127 127
0.545750 -0.192573 -0.067776 127 127 0
0.380980 0.525331 -0.386485 76 0 153
0.197964 -0.189228 -0.081178 0 127 127
-0.268161 -0.189287 0.634314 0 127 127
-0.275400 0.396744 -0.324175 153 76 0
-0.209229 -0.189287 0.589560 0 127 127
0.509606 -0.048919 -0.256067 76 0 153
0.081709 0.387279 -0.355092 76 0 153
-0.624475 0.007266 -0.253425 76 0 153
0.462646 0.520572 -0.353412 153 76 0
-0.627610 0.261700 -0.302733 76 0 153
-0.190650 -0.175344 0.117907 127 127 0
-0.519512 -0.247553 0.132674 0 127 127
0.222490 0.579588 -0.398986 76 0 153
-0.062532 0.296805 -0.334514 76 0 153
0.349807 -0.192573 0.238938 127 127 0
0.591185 0.196670 -0.265692 76 0 153
0.104536 0.026151 -0.272970 76 0 153
-0.286798 -0.174842 0.133765 127 127 0
0.353952 -0.193122 0.703101 0 127 127
0.312133 -0.192573 0.352682 127 127 0
0.054882 0.005930 -0.268445 76 0 153
-0.267888 0.353577 -0.347593 76 0 153
0.133623 0.367250 -0.350617 76 0 153
-0.134892 -0.247553 -0.092333 0 127 127
0.433787 -0.192573 0.377832 127 127 0
0.008717 -0.175749 0.039018 127 127 0
0.162588 0.271275 -0.328708 76 0 153
0.527084 0.312488 -0.303140 153 76 0
0.271614 -0.171861 -0.228132 76 0 153
0.163076 -0.247553 0.201162 0 127 127
0.317208 0.332811 -0.342871 76 0 153
0.544603 0.577796 -0.398579 76 0 153
0.062227 0.140502 -0.265904 153 76 0
0.007502 -0.192573 0.046213 127 127 0
-0.206958 0.108022 -0.258611 153 76 0
0.536093 0.607359 -0.405284 76 0 153
-0.178438 -0.194058 0.704620 0 127 127
-0.536913 -0.192573 0.061559 127 127 0
0.184505 -0.177690 0.139337 127 127 0
-0.188021 -0.192573 0.210578 127 127 0
-0.244504 -0.221037 -0.222934 0 127 127
0.634516 0.001055 -0.260228 76 0 153
-0.614463 0.551349 -0.350383 76 0 153
0.048496 0.365527 -0.317079 153 76 0
-0.414870 -0.125472 -0.192440 76 0 153
0.112933 -0.247553 0.373611 0 127 127
0.250646 -0.247553 0.250673 0 127 127
-0.294398 -0.247553 -0.117943 0 127 127
-0.221535 0.342414 -0.311860 153 76 0
0.530982 0.515401 -0.384225 76 0 153
-0.580323 -0.166266 -0.158493 76 0 153
0.429477 0.627845 -0.368525 76 0 153
-0.148496 0.414690 -0.328347 153 76 0
-0.374214 -0.192573 0.254412 127 127 0
-0.440145 0.629875 -0.410279 76 0 153
-0.363359 -0.176663 0.144205 127 127 0
0.485122 -0.192573 0.279427 127 127 0
0.201985 0.508878 -0.382743 76 0 153
0.192797 -0.247506 -0.170916 0 127 127
-0.290065 -0.174842 0.315093 127 127 0
-0.314075 -0.183707 0.256302 127 127 0
0.250587 0.308259 -0.304556 153 76 0
0.185621 0.091097 -0.287905 76 0 153
-0.244580 -0.247553 -0.036602 0 127 127
-0.181573 -0.247553 0.199267 0 127 127
0.504029 -0.247553 0.133087 0 127 127
-0.321601 0.063796 -0.281589 76 0 153
0.189389 -0.098666 -0.244589 76 0 153
-0.429756 -0.247553 0.417794 0 127 127
-0.363148 -0.192573 0.274261 127 127 0
-0.041139 -0.192573 0.132336 127 127 0
-0.162297 0.433452 -0.332663 153 76 0
0.055052 -0.189594 0.683215 0 127 127
-0.414933 -0.155419 -0.231846 76 0 153
-0.628139 -0.225200 0.167232 0 127 127
0.259263 0.722456 -0.399770 76 0 153
-0.176513 -0.247553 0.632367 0 127 127
-0.122386 -0.247553 0.255576 0 127 127
0.370790 -0.183707 0.025498 127 127 0
0.544394 -0.183707 -0.029869 127 127 0
-0.052547 -0.192573 0.373554 127 127 0
-0.023890 -0.087441 -0.247141 76 0 153
0.427596 0.612928 -0.406520 76 0 153
0.391499 -0.247404 -0.184975 0 127 127
0.442703 0.574383 -0.364887 153 76 0
0.180173 -0.192573 0.373826 127 127 0
0.002343 0.357698 -0.315298 153 76 0
0.367487 -0.192573 0.103697 127 127 0
0.197786 0.273851 -0.329293 76 0 153
-0.143978 -0.247553 0.492923 0 127 127
0.083888 -0.069923 -0.215962 153 76 0
-0.199483 -0.030332 -0.227152 153 76 0
0.567178 -0.192573 0.366926 127 127 0
-0.548019 -0.247530 0.672914 0 127 127
0.058388 -0.247553 -0.122479 0 127 127
-0.475041 -0.179929 -0.129627 0 127 127
0.228828 0.075125 -0.251178 153 76 0
-0.013767 -0.189494 0.433812 0 127 127
-0.429594 -0.183707 0.364106 127 127 0
-0.144913 -0.177847 0.229276 127 127 0
-0.453680 -0.189287 0.188770 0 127 127
-0.190149 0.259680 -0.326124 76 0 153
-0.111063 0.679798 -0.421614 76 0 153
-0.185604 -0.189332 0.413290 0 127 127
-0.594392 -0.247425 -0.081071 0 127 127
-0.445712 -0.189400 0.041145 0 127 127
-0.234348 0.044561 -0.244123 153 76 0
-0.616741 0.477313 -0.331488 76 0 153
0.091744 -0.187343 -0.092338 127 127 0
0.246219 -0.192573 0.168411 127 127 0
0.166148 -0.179974 0.307475 127 127 0
-0.257109 0.420935 -0.329811 153 76 0
0.222050 -0.247553 0.198310 0 127 127
-0.516841 -0.174842 0.224531 127 127 0
-0.258672 -0.202900 0.710946 0 127 127
-0.105680 -0.046488 -0.223533 153 76 0
-0.271897 -0.192573 0.039709 127 127 0
-0.614321 -0.193372 0.498991 0 127 127
-0.256544 0.267421 -0.295410 153 76 0
0.373440 0.507703 -0.350012 153 76 0
0.373447 0.588197 -0.365661 153 76 0
0.319563 0.702514 -0.380487 76 0 153
0.242897 0.271782 -0.296170 153 76 0
0.142025 0.642024 -0.369467 76 0 153
-0.086412 -0.192573 0.222260 127 127 0
0.370470 -0.247553 -0.020293 0 127 127
-0.364303 0.060034 -0.280702 76 0 153
0.134266 -0.192573 0.222823 127 127 0
0.176844 -0.177891 0.040440 127 127 0
-0.481705 0.330464 -0.342337 76 0 153
0.471176 0.331479 -0.309899 153 76 0
0.457846 0.442557 -0.335759 153 76 0
-0.260270 -0.174842 0.172872 127 127 0
-0.601405 -0.149766 -0.232794 76 0 153
-0.178950 -0.247553 0.453775 0 127 127
-0.604383 -0.190072 0.482805 0 127 127
0.044927 -0.247553 -0.008877 0 127 127
0.582024 0.168092 -0.260360 76 0 153
0.214430 0.012823 -0.236875 153 76 0
0.033222 0.263752 -0.294092 153 76 0
0.505298 -0.177271 0.160195 127 127 0
-0.395305 -0.174842 0.130355 127 127 0
-0.353785 -0.176085 0.249192 127 127 0
0.074967 -0.247553 0.554470 0 127 127
0.380723 -0.174842 0.284871 127 127 0
-0.102350 -0.192573 0.039542 127 127 0
0.408237 0.078147 -0.251865 153 76 0
0.147057 -0.183707 0.274046 127 127 0
0.102231 -0.183707 -0.030366 127 127 0
-0.046714 -0.174842 0.093191 127 127 0
-0.474333 -0.247553 0.021250 0 127 127
-0.081267 -0.192573 0.002598 127 127 0
-0.361509 -0.183707 0.094135 127 127 0
0.151027 -0.247553 0.270962 0 127 127
-0.571257 -0.192573 0.072038 127 127 0
0.022707 -0.192573 0.099200 127 127 0
-0.233384 -0.183707 0.235660 127 127 0
-0.135542 -0.247553 -0.017992 0 127 127
0.524417 -0.183707 -0.055433 127 127 0
0.565944 -0.189529 0.158252 0 127 127
0.475552 -0.192573 0.380687 127 127 0
0.260702 -0.237555 0.710252 0 127 127
-0.158098 0.383988 -0.354344 76 0 153
0.643826 -0.210025 0.438954 0 127 127
-0.370702 -0.247553 0.482189 0 127 127
0.184270 -0.247552 0.648954 0 127 127
-0.107270 -0.182260 0.192922 127 127 0
-0.620486 -0.242331 0.235802 0 127 127
-0.443551 -0.247553 0.596110 0 127 127
0.153209 -0.247553 -0.007798 0 127 127
-0.228802 -0.189788 0.487551 0 127 127
-0.538748 -0.192573 0.026557 127 127 0
0.290282 -0.174842 0.106182 127 127 0
-0.443303 -0.175278 0.234004 127 127 0
0.471859 -0.192573 0.095581 127 127 0
0.107212 0.583394 -0.399852 76 0 153
0.494179 -0.186770 -0.099044 0 127 127
0.093886 0.527774 -0.354079 153 76 0
-0.041481 0.722449 -0.399920 76 0 153
0.328441 0.586838 -0.400634 76 0 153
0.021167 -0.182068 0.140863 127 127 0
-0.391968 -0.174842 0.198018 127 127 0
0.423786 0.546030 -0.391314 76 0 153
-0.541920 -0.034498 -0.259346 76 0 153
-0.190542 -0.174842 0.002477 127 127 0
0.225289 -0.194592 0.706726 0 127 127
-0.220775 0.718422 -0.386113 76 0 153
0.460886 -0.192573 -0.007817 127 127 0
-0.525526 -0.192573 0.009131 127 127 0
-0.052144 -0.247553 -0.005695 0 127 127
-0.026580 0.509475 -0.349808 153 76 0
-0.541693 -0.247553 0.038529 0 127 127
0.582276 -0.247515 0.653329 0 127 127
0.061022 -0.192573 0.163668 127 127 0
-0.124225 0.039575 -0.276022 76 0 153
0.402382 -0.247553 0.146707 0 127 127
-0.349933 0.074710 -0.284160 76 0 153
-0.396417 0.477473 -0.375692 76 0 153
-0.303271 0.323997 -0.340840 76 0 153
-0.111756 -0.247552 0.647229 0 127 127
0.106016 -0.189287 0.532813 76 0 153
-0.331732 -0.174842 0.097412 127 127 0
0.214635 -0.089340 -0.207199 153 76 0
-0.134351 -0.192573 0.069207 127 127 0
-0.518044 -0.192573 0.370286 127 127 0
0.237681 -0.189287 0.446941 0 127 127
-0.213050 -0.247553 0.148411 0 127 127
-0.179820 0.140799 -0.299065 76 0 153
0.298758 -0.247553 0.197403 0 127 127
0.446571 0.268698 -0.328121 76 0 153
0.628899 0.121227 -0.289797 76 0 153
0.002224 0.313456 -0.305395 153 76 0
-0.550000 0.641517 -0.366679 76 0 153
0.463297 -0.189287 0.237597 0 127 127
0.545448 0.657969 -0.370426 76 0 153
0.267552 -0.247553 -0.052439 0 127 127
0.493170 0.066367 -0.282194 76 0 153
-0.390520 -0.036929 -0.225689 153 76 0
0.576024 -0.247553 0.022982 0 127 127
-0.044768 0.485111 -0.344281 153 76 0
-0.295504 0.521876 -0.352691 153 76 0
0.005968 -0.247552 0.649719 0 127 127
0.504275 -0.247553 -0.043061 0 127 127
0.432813 -0.189525 0.691173 0 127 127
0.088862 0.684839 -0.376465 76 0 153
-0.158777 -0.247553 0.404500 0 127 127
-0.309154 0.362691 -0.316434 153 76 0
-0.138537 0.097220 -0.289297 76 0 153
0.208586 -0.192573 0.362310 127 127 0
-0.226638 -0.147800 -0.233580 76 0 153
-0.406945 0.287167 -0.332322 76 0 153
0.592698 -0.247553 0.288566 0 127 127
0.564783 0.390668 -0.355864 76 0 153
-0.496132 -0.192573 0.167086 127 127 0
-0.143777 0.211839 -0.282870 153 76 0
-0.625728 -0.205366 0.268982 0 127 127
-0.524445 0.140117 -0.298910 76 0 153
-0.024827 0.381544 -0.320720 153 76 0
0.264323 -0.247553 0.591359 0 127 127
0.206623 -0.171172 -0.149910 0 127 127
-0.089614 0.643970 -0.369596 76 0 153
-0.052656 -0.247553 0.298527 0 127 127
0.545938 -0.192573 0.178154 127 127 0
0.307994 0.080528 -0.252406 153 76 0
0.404415 -0.192573 0.136480 127 127 0
0.085354 -0.050083 -0.255802 76 0 153
-0.513614 -0.189532 0.677928 0 127 127
-0.412822 -0.192573 0.197455 127 127 0
-0.216525 -0.192573 0.276200 127 127 0
0.284508 -0.246973 -0.194301 0 127 127
-0.049465 -0.190288 0.005559 0 127 127
-0.056915 -0.190288 0.044374 0 127 127
0.395047 -0.094182 -0.245611 76 0 153
0.637441 -0.240698 -0.120067 0 127 127
-0.243401 0.122933 -0.262244 153 76 0
-0.238068 0.210985 -0.283101 153 76 0
-0.473251 0.413931 -0.328035 153 76 0
0.281794 -0.247553 0.063858 0 127 127
-0.015511 -0.247553 0.189524 0 127 127
-0.446159 -0.093159 -0.245842 76 0 153
-0.316659 0.234276 -0.288271 153 76 0
0.042287 0.482386 -0.343677 153 76 0
-0.241853 0.533722 -0.388409 76 0 153
-0.311733 -0.020989 -0.262417 76 0 153
0.568120 -0.192573 -0.017537 127 127 0
-0.448712 -0.247553 0.347213 0 127 127
-0.443456 -0.050705 -0.222575 153 76 0
0.531493 -0.189287 0.612348 0 127 127
-0.492096 0.148151 -0.266792 153 76 0
-0.317603 0.525073 -0.353443 153 76 0
0.258586 -0.178724 0.311033 127 127 0
-0.461312 -0.183707 0.030091 127 127 0
-0.010588 -0.247553 0.621131 0 127 127
-0.431878 -0.189287 0.320829 0 127 127
0.406567 0.475535 -0.343182 153 76 0
0.371507 0.254118 -0.324896 76 0 153
-0.341430 0.201089 -0.312915 76 0 153
-0.566141 -0.247553 0.383186 0 127 127
0.194509 -0.247553 0.161778 0 127 127
-0.016785 -0.189287 0.481608 76 0 153
0.080710 -0.176993 0.176008 127 127 0
-0.624679 -0.221136 -0.193192 0 127 127
0.369670 0.342547 -0.312493 153 76 0
0.268077 -0.247553 0.252006 0 127 127
-0.097435 -0.192573 0.097071 127 127 0
0.550418 -0.183707 0.317698 127 127 0
0.440264 -0.247553 0.477785 0 127 127
0.020394 -0.247553 -0.131202 0 127 127
-0.421518 -0.178143 0.187242 127 127 0
-0.413525 -0.247553 0.026000 0 127 127
-0.033136 0.228370 -0.285933 153 76 0
-0.311616 -0.222601 -0.222890 0 127 127
0.453107 0.068983 -0.282810 76 0 153
-0.567366 0.265897 -0.281401 153 76 0
0.367054 -0.192573 0.258516 127 127 0
0.461621 -0.247553 -0.116022 0 127 127
-0.574255 -0.247554 -0.159906 0 127 127
0.427763 0.555142 -0.360797 153 76 0
0.354133 -0.183707 0.080970 127 127 0
-0.007420 -0.247553 -0.117806 0 127 127
0.644099 -0.215471 0.417532 0 127 127
-0.463166 -0.247306 0.693639 0 127 127
-0.084185 0.722529 -0.398127 76 0 153
-0.242697 -0.183707 0.212728 127 127 0
-0.350967 0.580138 -0.399111 76 0 153
-0.122147 -0.189287 0.570619 76 0 153
0.078571 -0.183707 0.156618 127 127 0
-0.088921 -0.190288 0.080986 0 127 127
0.099083 -0.247553 0.010608 0 127 127
-0.339613 -0.243065 -0.209964 0 127 127
-0.238784 0.660550 -0.370939 76 0 153
-0.471840 0.300404 -0.302506 153 76 0
-0.138487 -0.167923 -0.156751 76 0 153
-0.103889 0.399079 -0.357776 76 0 153
0.434404 -0.247553 0.456028 0 127 127
0.345913 -0.247553 0.103758 0 127 127
0.295635 0.371415 -0.319395 153 76 0
0.135516 -0.183707 -0.024405 127 127 0
-0.223171 -0.247553 0.031927 0 127 127
0.282899 0.216055 -0.316320 76 0 153
-0.012084 -0.247553 0.106380 0 127 127
-0.432660 -0.244303 -0.205001 0 127 127
0.416421 -0.183707 0.315101 127 127 0
0.085429 -0.102271 -0.243769 76 0 153
0.469474 -0.189287 0.609318 0 127 127
-0.480338 -0.247553 0.428603 0 127 127
0.429228 0.058179 -0.247316 153 76 0
-0.102240 -0.192573 0.357887 127 127 0
0.383466 0.695801 -0.378960 76 0 153
0.103127 -0.247553 -0.037258 0 127 127
0.396732 -0.247553 0.501379 0 127 127
-0.419790 -0.022442 -0.228907 153 76 0
-0.364330 -0.192573 0.138850 127 127 0
0.121111 0.178504 -0.307705 76 0 153
-0.145632 -0.174842 0.145645 127 127 0
-0.443045 -0.090512 -0.206656 153 76 0
-0.429978 -0.247553 0.543032 0 127 127
-0.160116 -0.247553 0.305663 0 127 127
-0.544400 -0.247553 0.486926 0 127 127
0.137970 -0.247553 0.186708 0 127 127
0.089014 -0.247553 -0.010482 0 127 127
0.586113 -0.144844 -0.180924 76 0 153
0.051913 -0.247553 0.415826 0 127 127
-0.314273 -0.247553 0.186890 0 127 127
0.501278 -0.174842 0.122357 127 127 0
-0.098008 0.277817 -0.330194 76 0 153
0.268608 -0.247553 0.521616 0 127 127
0.491814 -0.174842 0.267051 127 127 0
-0.212103 0.531694 -0.355001 153 76 0
0.157073 -0.183707 0.082506 127 127 0
-0.223354 0.453913 -0.337318 153 76 0
-0.608655 -0.133761 -0.234614 76 0 153
0.346416 0.164653 -0.271489 153 76 0
0.007693 0.073222 -0.283810 76 0 153
-0.331296 -0.042541 -0.224429 153 76 0
0.120097 -0.247515 0.674327 0 127 127
-0.345176 -0.183707 0.204773 127 127 0
-0.267226 -0.247553 0.374446 0 127 127
-0.073981 -0.247387 0.686224 0 127 127
0.224119 -0.189335 0.628825 0 127 127
0.629748 0.418566 -0.319374 76 0 153
0.037085 0.524269 -0.386243 76 0 153
0.219737 -0.247553 0.539086 0 127 127
-0.416977 -0.189287 0.333152 0 127 127
-0.002893 0.035209 -0.275029 76 0 153
-0.269508 0.262637 -0.326777 76 0 153
0.434434 -0.189288 0.646827 0 127 127
0.442948 -0.162081 -0.163597 76 0 153
0.401991 -0.189396 0.680194 0 127 127
-0.041030 0.537606 -0.356363 153 76 0
-0.495236 -0.247553 -0.077333 0 127 127
-0.331850 -0.017850 -0.263131 76 0 153
-0.561842 0.371161 -0.351481 76 0 153
-0.416743 -0.189338 0.675258 0 127 127
0.393705 -0.192573 0.366932 127 127 0
0.391450 -0.247553 0.463623 0 127 127
0.594954 0.334264 -0.343183 76 0 153
0.556960 -0.139134 -0.186938 76 0 153
-0.344314 -0.247553 0.218445 0 127 127
0.116016 -0.178063 0.163601 127 127 0
-0.485188 -0.247553 0.243073 0 127 127
-0.512944 -0.189287 0.144293 0 127 127
0.303527 -0.192573 0.019168 127 127 0
0.418582 -0.042593 -0.257505 76 0 153
-0.159307 -0.192573 -0.001163 127 127 0
0.572529 -0.051144 -0.255561 76 0 153
-0.195066 0.599262 -0.403460 76 0 153
0.643599 -0.047365 -0.235585 76 0 153
-0.560789 -0.192573 0.335526 127 127 0
0.044774 -0.247553 -0.083982 0 127 127
0.206757 -0.180618 0.110810 127 127 0
0.442602 -0.183707 0.261797 127 127 0
-0.380548 -0.189391 0.523159 0 127 127
0.622448 -0.131296 -0.235472 76 0 153
-0.042037 0.259355 -0.326051 76 0 153
0.279873 0.069045 -0.282826 76 0 153
0.282076 -0.247553 0.368154 0 127 127
0.150733 -0.183707 0.330207 127 127 0
0.197078 -0.189439 0.507750 0 127 127
0.500612 0.429725 -0.331306 153 76 0
0.482271 -0.225280 -0.222821 0 127 127
-0.025555 -0.247553 0.556437 0 127 127
0.625722 -0.242980 -0.193097 0 127 127
-0.125465 0.461493 -0.372133 76 0 153
0.629406 -0.193325 0.412180 0 127 127
0.227477 -0.192573 0.129831 127 127 0
-0.172764 -0.190288 0.142902 0 127 127
-0.566545 -0.247553 0.088107 0 127 127
0.160757 -0.189287 0.589450 0 127 127
0.129988 -0.192573 0.076184 127 127 0
0.390953 -0.174842 0.090532 127 127 0
-0.280165 -0.247553 0.011946 0 127 127
-0.015810 -0.247553 -0.092253 0 127 127
0.200402 0.720621 -0.413927 76 0 153
-0.158605 0.684667 -0.422713 76 0 153
-0.128422 0.231075 -0.319736 76 0 153
-0.156427 0.434498 -0.365956 76 0 153
-0.281624 0.205098 -0.281764 153 76 0
-0.471145 -0.183707 0.274180 127 127 0
0.004990 -0.247553 0.436723 0 127 127
0.611149 -0.131151 -0.191397 76 0 153
-0.222001 -0.247553 0.383362 0 127 127
0.273925 -0.131921 -0.237094 76 0 153
0.468371 -0.183707 0.279760 127 127 0
0.428882 -0.183707 -0.059563 127 127 0
-0.412643 -0.183707 -0.042783 127 127 0
0.074532 -0.223807 0.713326 0 127 127
0.029320 -0.183707 0.265031 127 127 0
0.296584 -0.247553 0.540630 0 127 127
-0.524773 -0.247553 -0.148043 0 127 127
0.117874 -0.192573 0.142089 127 127 0
0.269355 -0.247553 -0.123107 0 127 127
0.247011 -0.192573 0.338164 127 127 0
-0.380194 -0.059180 -0.253734 76 0 153
0.563180 -0.247545 0.670020 0 127 127
-0.456334 -0.247553 0.115415 0 127 127
0.285098 0.342374 -0.312452 153 76 0
-0.456169 -0.189768 0.561684 0 127 127
-0.421178 -0.177311 0.160930 127 127 0
-0.119557 -0.192573 0.082613 127 127 0
-0.592589 -0.247437 0.633713 0 127 127
0.005090 -0.192573 0.369806 127 127 0
0.041496 0.605557 -0.367045 76 0 153
-0.371564 0.217522 -0.316654 76 0 153
0.524639 0.678450 -0.375011 76 0 153
0.489914 0.397540 -0.324260 153 76 0
-0.320783 0.413882 -0.361142 76 0 153
-0.541040 -0.247553 0.612589 0 127 127
0.405036 -0.189287 0.204280 0 127 127
-0.452696 0.164897 -0.304542 76 0 153
0.572977 0.091418 -0.287977 76 0 153
-0.572281 -0.192573 -0.089953 127 127 0
0.174415 -0.079418 -0.211793 153 76 0
-0.405841 -0.247374 -0.189049 0 127 127
0.031172 -0.190034 0.444507 0 127 127
0.196493 0.634141 -0.368943 76 0 153
0.421253 -0.186251 -0.102453 0 127 127
-0.218731 -0.174842 0.104999 127 127 0
-0.063987 0.441159 -0.367510 76 0 153
-0.589022 -0.189816 -0.025240 0 127 127
0.548208 -0.189287 0.589319 0 127 127
0.308050 0.504025 -0.348615 153 76 0
0.375932 -0.016194 -0.230290 153 76 0
-0.261168 0.162689 -0.272058 153 76 0
0.213064 -0.247553 0.318883 0 127 127
0.241617 0.270789 -0.328597 76 0 153
0.068880 0.228132 -0.319067 76 0 153
-0.018218 0.413561 -0.328082 153 76 0
0.623673 0.154409 -0.297962 76 0 153
-0.472745 0.048723 -0.278102 76 0 153
0.450519 -0.247553 -0.086770 0 127 127
-0.446613 -0.183707 0.288575 127 127 0
-0.169302 -0.192573 0.017101 127 127 0
-0.162081 -0.247553 -0.035736 0 127 127
-0.217787 -0.247553 -0.002946 0 127 127
-0.408475 0.321395 -0.307202 153 76 0
0.453365 -0.234511 -0.218383 0 127 127
0.424619 0.136680 -0.265036 153 76 0
0.175529 -0.192573 0.314667 127 127 0
-0.589789 -0.189828 0.020055 0 127 127
0.255553 0.602996 -0.404309 76 0 153
-0.512795 -0.192573 0.267350 127 127 0
0.276259 0.722394 -0.401161 76 0 153
0.553587 -0.177603 0.103015 127 127 0
-0.232135 -0.247553 -0.112838 0 127 127
-0.615744 -0.193845 0.456515 0 127 127
0.148492 -0.179074 0.233475 127 127 0
-0.408593 -0.183707 -0.005507 127 127 0
-0.375715 -0.174842 0.212763 127 127 0
0.280738 -0.189291 0.663170 0 127 127
-0.082673 -0.247553 0.642745 0 127 127
0.380866 -0.183707 0.299522 127 127 0
0.500417 0.520794 -0.351172 153 76 0
-0.269906 -0.247553 0.408595 0 127 127
-0.110340 -0.247553 -0.129429 0 127 127
0.023012 -0.247553 0.102263 0 127 127
-0.528912 -0.034230 -0.219786 153 76 0
-0.100847 -0.192573 -0.034364 127 127 0
0.190038 -0.189365 0.462115 0 127 127
-0.158958 -0.190158 -0.035943 0 127 127
0.197235 -0.192573 0.158852 127 127 0
0.565954 0.707828 -0.426358 76 0 153
0.400035 -0.247553 0.480831 0 127 127
-0.573608 0.610567 -0.405996 76 0 153
0.109485 -0.247553 0.198538 0 127 127
0.090645 0.456422 -0.337889 153 76 0
0.548067 -0.247553 0.350465 0 127 127
-0.555498 -0.201014 -0.223951 0 127 127
0.212256 0.688744 -0.423634 76 0 153
0.030328 -0.174842 0.003972 127 127 0
-0.111638 -0.247553 0.474091 0 127 127
-0.436430 0.391622 -0.323011 153 76 0
0.064628 -0.247419 0.683266 0 127 127
-0.307188 -0.170082 -0.151964 0 127 127
-0.390350 -0.183707 0.060832 127 127 0
-0.497555 -0.247553 0.151748 0 127 127
0.327064 -0.189665 0.563925 0 127 127
-0.269379 -0.183707 0.361567 127 127 0
-0.442683 -0.247553 0.145431 0 127 127
-0.610116 0.126017 -0.292708 76 0 153
0.001845 -0.247520 -0.168889 0 127 127
0.141355 -0.189323 0.491570 76 0 153
-0.076721 -0.183707 0.028095 127 127 0
0.309950 -0.182371 0.126042 127 127 0
-0.242691 0.433057 -0.365617 76 0 153
-0.305111 0.655585 -0.370368 76 0 153
0.467083 -0.015606 -0.263641 76 0 153
-0.311935 0.383401 -0.321142 153 76 0
-0.026620 -0.247553 0.394332 0 127 127
-0.364702 0.529534 -0.354493 153 76 0
-0.466110 -0.192573 0.199403 127 127 0
0.343157 -0.189287 0.291955 0 127 127
0.167875 0.312290 -0.305799 153 76 0
0.042488 -0.179750 0.293272 127 127 0
-0.627963 -0.209594 0.147461 0 127 127
0.332102 -0.063386 -0.218833 153 76 0
0.629523 -0.244420 0.121122 0 127 127
0.421067 -0.247553 -0.044999 0 127 127
0.318220 -0.161668 -0.163818 76 0 153
0.263798 -0.192573 -0.000324 127 127 0
0.168786 -0.247395 -0.186209 0 127 127
-0.011321 -0.190186 0.148412 0 127 127
-0.033011 -0.192573 0.214333 127 127 0
0.438077 -0.192573 0.333622 127 127 0
0.118674 -0.189287 0.347611 0 127 127
0.098628 0.120843 -0.294575 76 0 153
-0.106508 0.531014 -0.387777 76 0 153
-0.132568 -0.192573 0.026015 127 127 0
-0.340286 -0.192573 0.019425 127 127 0
-0.224086 0.200139 -0.312699 76 0 153
0.351119 0.001392 -0.234276 153 76 0
-0.242797 -0.190288 0.065246 0 127 127
0.164776 -0.183707 0.116037 127 127 0
-0.524929 0.417626 -0.321845 153 76 0
-0.397443 0.148317 -0.268709 153 76 0
0.493551 0.300154 -0.302334 153 76 0
0.051147 -0.189919 0.465561 0 127 127
-0.317176 0.490482 -0.345491 153 76 0
0.340154 -0.192573 0.317307 127 127 0
-0.145906 -0.190241 0.317275 0 127 127
0.187654 -0.192573 0.211928 127 127 0
-0.575935 -0.192573 0.356607 127 127 0
-0.071397 -0.174842 0.222950 127 127 0
0.034152 0.087513 -0.287090 76 0 153
-0.207074 0.357963 -0.315358 153 76 0
-0.152265 -0.192573 -0.068112 127 127 0
0.198918 -0.185607 -0.225671 76 0 153
-0.142978 0.036321 -0.275282 76 0 153
0.313902 -0.081674 -0.210799 153 76 0
-0.216252 -0.183707 -0.071072 127 127 0
0.523625 -0.183707 0.109632 127 127 0
0.022592 -0.183707 0.072974 127 127 0
0.000586 -0.192573 -0.070914 127 127 0
-0.539378 -0.247553 0.068924 0 127 127
0.482537 -0.183707 -0.022065 127 127 0
-0.461740 0.669374 -0.419260 76 0 153
0.515341 -0.247530 -0.167832 0 127 127
0.099135 0.327158 -0.341585 76 0 153
0.463551 -0.181076 0.078219 127 127 0
0.413211 -0.183707 0.117200 127 127 0
-0.536676 -0.174842 0.264855 127 127 0
-0.427824 0.346978 -0.312870 153 76 0
-0.572698 -0.247553 0.052227 0 127 127
0.610881 0.696746 -0.380052 76 0 153
0.153053 -0.175887 0.039110 127 127 0
-0.160828 -0.183707 0.291742 127 127 0
-0.029891 -0.192573 0.268686 127 127 0
-0.526698 0.635923 -0.411652 76 0 153
0.489531 -0.183707 -0.057128 127 127 0
-0.506377 -0.174842 0.341679 127 127 0
0.287941 -0.189287 0.399989 0 127 127
0.207369 -0.192573 0.396465 127 127 0
-0.180489 -0.247553 -0.013896 0 127 127
0.132366 -0.247553 0.162231 0 127 127
0.146875 -0.247552 0.646119 0 127 127
-0.313476 0.690648 -0.423999 76 0 153
-0.486556 0.405426 -0.359219 76 0 153
0.197654 0.314855 -0.306110 153 76 0
-0.182049 0.541296 -0.357202 153 76 0
-0.057917 -0.247553 0.111588 0 127 127
0.428435 -0.018884 -0.262896 76 0 153
-0.090583 -0.192573 0.132517 127 127 0
0.334729 -0.192573 0.143945 127 127 0
0.359566 -0.178361 -0.133663 0 127 127
0.644082 -0.213394 0.506587 0 127 127
0.194975 -0.192573 0.019603 127 127 0
0.489344 -0.247553 0.069757 0 127 127
0.405535 0.582033 -0.399542 76 0 153
-0.595534 0.070089 -0.282888 76 0 153
0.603512 -0.247392 0.226717 0 127 127
0.348071 -0.183707 0.111226 127 127 0
0.526619 -0.183707 0.234476 127 127 0
0.386166 -0.189287 0.481402 0 127 127
0.349331 -0.247553 -0.109617 0 127 127
-0.088651 -0.247553 0.268700 0 127 127
-0.618092 -0.243381 -0.133126 0 127 127
-0.317192 -0.241668 0.708772 0 127 127
-0.077844 0.046538 -0.277606 76 0 153
0.502677 0.137418 -0.298294 76 0 153
0.057555 0.255867 -0.325281 76 0 153
0.089911 -0.178097 0.029122 127 127 0
0.462999 -0.247550 0.657029 0 127 127
-0.574944 0.589373 -0.354895 76 0 153
-0.310569 0.476029 -0.375374 76 0 153
-0.379325 -0.079485 -0.248970 76 0 153
0.542620 -0.189356 0.554291 0 127 127
-0.350567 0.117529 -0.293839 76 0 153
-0.238596 -0.174842 0.086242 127 127 0
0.126653 -0.189287 0.020302 0 127 127
0.125894 0.575716 -0.364652 153 76 0
-0.290693 -0.174842 0.354829 127 127 0
-0.489241 -0.247553 -0.016450 0 127 127
-0.432110 -0.174842 0.145124 127 127 0
-0.004790 0.623105 -0.408777 76 0 153
0.418719 0.637967 -0.412121 76 0 153
0.297286 -0.247553 0.624769 0 127 127
-0.497449 -0.247553 0.361962 0 127 127
-0.290506 -0.183707 -0.022619 127 127 0
-0.476414 0.449185 -0.336277 153 76 0
0.608295 -0.164415 -0.229599 76 0 153
-0.286905 -0.192573 0.164187 127 127 0
0.404721 -0.163173 -0.230081 76 0 153
-0.624339 0.653617 -0.385451 76 0 153
0.599401 -0.189396 0.649431 0 127 127
0.386375 -0.147095 -0.179063 76 0 153
-0.241872 -0.169940 -0.152231 0 127 127
0.261452 0.572981 -0.364420 153 76 0
-0.420261 -0.183707 -0.066436 127 127 0
0.502377 -0.192573 0.235634 127 127 0
-0.334508 0.571674 -0.364122 153 76 0
0.424225 0.089761 -0.254508 153 76 0
0.216793 -0.223696 -0.222860 0 127 127
0.443664 -0.174842 0.277613 127 127 0
0.038894 -0.247553 0.058095 0 127 127
0.182021 0.703838 -0.426346 76 0 153
-0.405076 -0.192573 0.272639 127 127 0
-0.473662 -0.181709 0.357321 127 127 0
0.027165 -0.247553 -0.034540 0 127 127
0.115490 -0.247553 0.509106 0 127 127
-0.353230 0.651273 -0.415144 76 0 153
0.474371 -0.247553 -0.068626 0 127 127
0.358017 -0.033759 -0.226392 153 76 0
0.486869 -0.192573 0.171435 127 127 0
0.412433 -0.192573 0.367780 127 127 0
-0.529023 -0.189287 0.323919 0 127 127
-0.296549 -0.182688 0.068083 127 127 0
-0.076614 -0.192573 0.360138 127 127 0
-0.525550 0.619728 -0.364645 76 0 153
-0.292203 -0.174842 0.033662 127 127 0
0.110993 -0.176388 0.186062 127 127 0
-0.501561 -0.176425 0.293756 127 127 0
0.380174 -0.192514 -0.095150 127 127 0
-0.586368 0.182428 -0.262668 76 0 153
0.624134 -0.201185 0.682041 0 127 127
0.068286 -0.064118 -0.252592 76 0 153
0.615059 -0.184308 -0.114809 0 127 127
-0.432384 -0.189287 0.442147 0 127 127
0.145614 -0.247553 0.062088 0 127 127
0.040108 -0.183707 0.069442 127 127 0
0.402524 -0.183707 0.009431 127 127 0
0.148911 -0.192573 0.008902 127 127 0
0.157487 -0.192573 0.193973 127 127 0
-0.327768 -0.247553 0.102876 0 127 127
0.361690 -0.192573 0.325415 127 127 0
0.081527 -0.176388 0.221404 127 127 0
0.028854 -0.178545 0.357621 127 127 0
-0.185980 0.444331 -0.335137 153 76 0
0.300150 -0.247553 0.481428 0 127 127
0.060059 -0.178087 0.234075 127 127 0
0.285493 -0.106023 -0.199964 76 0 153
-0.200705 -0.130486 -0.237413 76 0 153
0.142011 -0.170063 -0.152421 0 127 127
0.570923 -0.247553 0.319870 0 127 127
-0.301330 -0.189401 0.411231 0 127 127
-0.190423 -0.183707 0.295492 127 127 0
-0.025343 -0.190289 0.064753 0 127 127
0.117899 -0.192573 0.001244 127 127 0
-0.012004 -0.183707 0.166856 127 127 0
0.592489 0.604000 -0.358618 76 0 153
0.146221 0.489827 -0.378423 76 0 153
-0.416856 0.547837 -0.358690 153 76 0
0.484288 -0.175542 0.191243 127 127 0
0.345874 0.207634 -0.281314 153 76 0
-0.234144 -0.181872 -0.122364 0 127 127
0.600205 -0.072901 -0.204555 76 0 153
0.569701 -0.183920 -0.090477 127 127 0
0.008831 0.722528 -0.398157 76 0 153
-0.364831 -0.247553 0.302849 0 127 127
-0.359269 -0.174842 0.012861 127 127 0
0.443240 -0.174842 0.082048 127 127 0
-0.408283 -0.189454 0.511767 0 127 127
0.322547 -0.247553 -0.030379 0 127 127
0.114130 -0.174842 0.287236 127 127 0
-0.580035 -0.191264 0.693411 0 127 127
-0.122669 -0.192573 0.197685 127 127 0
-0.194797 0.475074 -0.342054 153 76 0
0.272169 -0.183707 0.339057 127 127 0
0.293550 -0.174842 0.327863 127 127 0
0.420115 -0.189287 0.486885 0 127 127
0.208190 0.608701 -0.405581 76 0 153
-0.322811 -0.247553 -0.028116 0 127 127
0.532691 -0.182321 0.074638 127 127 0
0.036893 -0.189459 0.307467 0 127 127
-0.171400 0.094709 -0.288726 76 0 153
-0.238870 0.359945 -0.349002 76 0 153
-0.590130 0.141528 -0.299106 76 0 153
0.259699 -0.183707 0.070352 127 127 0
0.292112 -0.192573 0.050365 127 127 0
0.162904 0.683664 -0.376198 76 0 153
-0.621132 0.567412 -0.355465 76 0 153
-0.565307 -0.247546 0.671134 0 127 127
0.523313 -0.183707 0.184042 127 127 0
-0.403897 -0.070342 -0.251124 76 0 153
-0.216435 -0.183707 0.385004 127 127 0
0.470174 -0.098002 -0.244741 76 0 153
-0.501870 -0.189906 0.547648 0 127 127
0.017572 -0.247553 -0.113060 0 127 127
-0.620052 -0.195275 0.362968 0 127 127
-0.022288 -0.174842 0.281358 127 127 0
0.014893 0.629427 -0.368630 76 0 153
0.151309 -0.206142 -0.223567 0 127 127
-0.376777 -0.189287 0.471456 0 127 127
0.598738 -0.247466 0.046277 0 127 127
0.160198 -0.174842 0.252901 127 127 0
0.108632 0.404341 -0.325921 153 76 0
-0.109235 -0.183707 0.051556 127 127 0
-0.609006 -0.060230 -0.209654 76 0 153
-0.549109 -0.192573 -0.028811 127 127 0
-0.043422 -0.183707 0.024425 127 127 0
-0.140240 -0.247553 0.532992 0 127 127
0.604774 -0.024861 -0.215728 76 0 153
-0.608225 -0.245987 0.272615 0 127 127
0.549066 -0.183707 0.293906 127 127 0
0.506076 -0.013813 -0.264048 76 0 153
-0.212359 -0.192573 0.053482 127 127 0
-0.104725 -0.175080 0.174738 127 127 0
-0.396037 -0.046323 -0.256657 76 0 153
0.259402 -0.247553 0.624926 0 127 127
-0.205701 0.330756 -0.342404 76 0 153
-0.461905 -0.192573 0.393008 127 127 0
-0.328906 -0.174842 0.134373 127 127 0
0.131972 -0.128628 -0.237823 76 0 153
0.543634 -0.192573 0.332023 127 127 0
0.444751 -0.023740 -0.228615 153 76 0
-0.530404 -0.144125 -0.181050 76 0 153
-0.179338 -0.183707 -0.006278 127 127 0
0.127761 0.459330 -0.371641 76 0 153
0.040071 -0.192573 0.000143 127 127 0
-0.173965 0.498676 -0.347354 153 76 0
-0.529997 0.551646 -0.392633 76 0 153
-0.215602 0.528765 -0.387266 76 0 153
-0.042854 0.345263 -0.345702 76 0 153
-0.555127 0.001742 -0.267519 76 0 153
-0.449987 -0.175740 -0.139423 0 127 127
-0.252607 -0.192573 0.337991 127 127 0
0.240017 -0.192573 -0.048719 127 127 0
0.138087 -0.247553 -0.121683 0 127 127
-0.100879 -0.183707 0.120243 127 127 0
-0.559322 -0.247553 -0.109720 0 127 127
-0.481058 0.258547 -0.292628 153 76 0
0.403799 0.390189 -0.355754 76 0 153
-0.056378 -0.192573 0.329341 127 127 0
-0.049141 -0.190026 0.290101 0 127 127
-0.243758 -0.247553 -0.091906 0 127 127
-0.386118 -0.247553 0.572056 0 127 127
0.546966 -0.183707 0.200135 127 127 0
0.614995 -0.247213 -0.082680 0 127 127
0.015245 -0.247553 0.412249 0 127 127
0.304872 -0.182008 0.089672 127 127 0
0.220642 0.558182 -0.361046 153 76 0
-0.386087 -0.247553 0.218804 0 127 127
-0.590693 -0.189509 0.205332 0 127 127
-0.555838 -0.183707 0.224713 127 127 0
-0.407348 -0.183707 0.064172 127 127 0
0.634180 -0.243187 0.170447 0 127 127
-0.138039 -0.174842 0.190993 127 127 0
0.489014 0.685630 -0.376645 76 0 153
0.018389 -0.247553 0.330918 0 127 127
-0.471091 -0.247553 0.149990 0 127 127
0.304678 -0.247553 0.293004 0 127 127
-0.611513 -0.245119 0.194998 0 127 127
0.546149 -0.174842 0.082606 127 127 0
-0.541561 -0.247553 0.132118 0 127 127
0.129689 -0.183707 0.101171 127 127 0
0.083593 -0.192573 0.142312 127 127 0
0.511937 -0.192573 0.119884 127 127 0
-0.541993 -0.179450 0.182906 127 127 0
0.292082 0.150512 -0.268179 153 76 0
0.381088 0.602989 -0.404307 76 0 153
-0.541418 0.595236 -0.402544 76 0 153
0.617579 -0.247173 0.518675 0 127 127
-0.242140 0.529126 -0.354397 153 76 0
-0.391326 -0.190200 0.028766 0 127 127
-0.332255 -0.247553 0.071882 0 127 127
0.550583 -0.192573 0.124253 127 127 0
0.217217 0.631191 -0.368747 76 0 153
-0.280234 0.466119 -0.340067 153 76 0
0.365122 -0.180254 0.228904 127 127 0
0.432696 -0.189287 0.612909 0 127 127
0.341202 0.105079 -0.257958 153 76 0
-0.271881 -0.192573 0.079648 127 127 0
0.294124 0.257184 -0.292706 153 76 0
0.619425 0.335234 -0.343045 76 0 153
-0.590162 -0.247456 0.175070 0 127 127
-0.560276 0.486055 -0.331799 153 76 0
0.383785 -0.183707 0.376764 127 127 0
0.294584 -0.192573 -0.053171 127 127 0
-0.106127 0.360300 -0.315890 153 76 0
-0.126833 -0.018883 -0.229693 153 76 0
0.134508 -0.189287 0.292599 0 127 127
0.604195 -0.247381 0.546655 0 127 127
0.002749 -0.088380 -0.246928 76 0 153
0.146671 -0.192573 0.114094 127 127 0
-0.408179 0.469102 -0.340729 153 76 0
-0.503331 -0.192573 -0.036058 127 127 0
0.566936 -0.183707 0.241967 127 127 0
0.582252 -0.189491 0.041499 0 127 127
0.275257 -0.183707 -0.040327 127 127 0
0.241593 -0.184321 -0.225902 76 0 153
0.067251 -0.192573 0.299448 127 127 0
0.264778 -0.247553 -0.107176 0 127 127
0.421095 -0.189287 -0.012398 0 127 127
0.001026 -0.176624 0.175763 127 127 0
0.069823 -0.183707 0.046991 127 127 0
0.565623 0.027886 -0.273364 76 0 153
-0.035860 -0.183707 0.111349 127 127 0
0.114396 0.628465 -0.368566 76 0 153
0.250838 -0.192573 0.276187 127 127 0
0.590307 0.638927 -0.412327 76 0 153
0.139670 -0.247553 -0.103879 0 127 127
0.048206 0.274369 -0.296712 153 76 0
0.551381 -0.247553 0.035751 0 127 127
-0.038733 0.297336 -0.334633 76 0 153
-0.043926 0.422296 -0.363078 76 0 153
0.296943 -0.247553 0.073766 0 127 127
-0.589367 -0.247462 0.016018 0 127 127
-0.324658 -0.174842 0.030618 127 127 0
-0.106644 -0.123424 -0.192918 76 0 153
0.543225 -0.189287 0.405767 0 127 127
0.262228 0.181115 -0.275280 153 76 0
0.640606 -0.234477 0.618069 0 127 127
0.289409 -0.192573 0.026573 127 127 0
0.433272 0.196265 -0.278726 153 76 0
0.580179 0.291880 -0.287452 76 0 153
-0.191457 -0.183707 0.268446 127 127 0
0.075341 -0.192573 0.029174 127 127 0
0.103742 0.701904 -0.426002 76 0 153
-0.197843 0.698987 -0.425483 76 0 153
0.173239 -0.189287 0.556937 0 127 127
-0.381058 -0.189287 0.412183 0 127 127
0.627026 -0.192850 0.018054 0 127 127
0.576527 0.509033 -0.338441 76 0 153
0.560393 -0.165896 -0.229461 76 0 153
-0.158748 -0.079175 -0.211901 153 76 0
-0.027055 0.360441 -0.315922 153 76 0
-0.480326 0.367848 -0.350749 76 0 153
-0.325787 -0.183707 0.235533 127 127 0
-0.417666 0.662886 -0.417782 76 0 153
-0.287817 -0.192573 -0.046443 127 127 0
-0.283973 -0.192573 0.141568 127 127 0
-0.271626 -0.247357 -0.191369 0 127 127
0.595820 0.422630 -0.363160 76 0 153
0.371006 -0.247553 0.481707 0 127 127
-0.306485 -0.192573 -0.075806 127 127 0
-0.116865 0.002971 -0.234635 153 76 0
-0.369537 0.668008 -0.418949 76 0 153
-0.628230 -0.218324 0.094230 0 127 127
0.489392 -0.192573 0.339114 127 127 0
-0.217678 0.630794 -0.410485 76 0 153
