ply
format ascii 1.0
element vertex 638
property float x
property float y
property float z
property float nx
property float ny
property float nz
property uchar red
property uchar green
property uchar blue
property float opacity
end_header
0.267542 -0.178062 -0.008004 0.000000 -0.553078 0.833130 80 80 80 1.000000
-0.214507 -0.174842 0.232654 0.000000 -1.000000 -0.000000 80 80 80 1.000000
-0.533514 0.131169 -0.267142 0.000000 -0.221736 -0.975107 29 26 31 1.000000
-0.153123 0.473536 -0.371503 0.000000 0.221736 0.975107 122 102 89 1.000000
0.372445 -0.244269 0.334260 0.000000 -1.000000 -0.000000 35 35 35 1.000000
-0.109727 -0.192573 0.492673 0.000000 1.000000 0.000000 181 176 205 1.000000
0.160863 0.232534 -0.316700 0.000000 -0.221736 -0.975107 34 25 90 1.000000
0.329156 0.514749 -0.354366 0.000000 -0.221736 -0.975107 90 73 65 1.000000
0.001456 -0.192573 0.454426 0.000000 1.000000 0.000000 168 163 191 1.000000
-0.613726 -0.017966 -0.259737 0.000000 0.221736 0.975107 7 5 6 1.000000
0.169597 0.315298 -0.335520 0.000000 0.221736 0.975107 46 37 72 1.000000
-0.256955 0.172807 -0.303118 0.000000 -0.221736 -0.975107 35 35 35 1.000000
-0.284492 0.318847 -0.336327 0.000000 -0.221736 -0.975107 35 35 35 1.000000
0.438669 -0.244269 0.221977 0.000000 1.000000 0.000000 30 32 32 1.000000
0.587833 -0.244269 0.201284 0.000000 -1.000000 -0.000000 35 35 35 1.000000
-0.414337 0.297838 -0.331550 0.000000 -0.221736 -0.975107 35 35 35 1.000000
0.315293 0.300802 -0.332224 0.000000 -0.221736 -0.975107 35 35 35 1.000000
0.437075 0.104161 -0.287508 0.000000 -0.221736 -0.975107 35 35 35 1.000000
0.348345 -0.180603 0.111271 0.000000 -0.553078 -0.833130 80 80 80 1.000000
0.024993 0.295714 -0.304559 0.000000 0.221736 0.975107 35 38 43 1.000000
0.496400 -0.244269 0.552010 0.000000 1.000000 0.000000 30 86 211 1.000000
0.620384 0.383042 -0.350925 0.000000 -0.221736 -0.975107 35 35 35 1.000000
-0.061974 -0.192573 0.608416 0.000000 -1.000000 -0.000000 35 35 35 1.000000
-0.147305 -0.192573 0.681232 0.000000 -1.000000 -0.000000 93 72 65 1.000000
-0.348756 0.119858 -0.264570 0.000000 -0.221736 -0.975107 90 88 89 1.000000
-0.571178 -0.188763 0.157571 0.612160 -0.790734 -0.000000 80 80 80 1.000000
0.641229 -0.244051 0.337440 -0.999772 0.000000 -0.021341 79 82 87 1.000000
-0.498523 0.082598 -0.282605 0.000000 0.221736 0.975107 34 21 17 1.000000
0.038745 -0.174842 0.314002 0.000000 -1.000000 -0.000000 80 80 80 1.000000
0.293597 -0.244269 0.072063 0.000000 1.000000 0.000000 61 59 58 1.000000
0.126754 -0.014932 -0.233919 0.000000 -0.221736 -0.975107 82 64 40 1.000000
0.533121 -0.244269 0.649195 0.000000 1.000000 0.000000 20 7 3 1.000000
-0.068562 -0.192573 0.026885 0.000000 -1.000000 -0.000000 61 56 46 1.000000
0.061855 -0.192573 0.511562 0.000000 1.000000 0.000000 203 197 231 1.000000
0.135645 0.362063 -0.346154 0.000000 -0.221736 -0.975107 57 68 148 1.000000
-0.194448 -0.192573 0.643589 0.000000 1.000000 0.000000 35 35 35 1.000000
0.170157 -0.192573 -0.117824 0.000000 -1.000000 -0.000000 71 49 25 1.000000
0.641229 -0.198651 -0.019893 0.999992 -0.000000 0.004090 14 16 19 1.000000
-0.507837 -0.148944 -0.229953 0.000000 -0.221736 -0.975107 35 35 35 1.000000
0.013473 0.047143 -0.274543 0.000000 -0.221736 -0.975107 35 35 35 1.000000
0.373467 -0.054597 -0.224899 0.000000 -0.221736 -0.975107 55 43 33 1.000000
0.187305 0.425859 -0.360661 0.000000 -0.221736 -0.975107 35 35 35 1.000000
-0.582185 -0.244269 -0.185730 0.000000 -1.000000 -0.000000 35 35 35 1.000000
0.070368 -0.244269 -0.209383 0.000000 1.000000 0.000000 52 32 30 1.000000
-0.588409 -0.244269 0.076276 0.000000 1.000000 0.000000 159 162 167 1.000000
0.408550 -0.244269 0.319749 0.000000 -1.000000 -0.000000 35 35 35 1.000000
0.345388 -0.220646 0.710503 0.019810 -0.000000 0.999804 53 52 54 1.000000
0.052650 0.012352 -0.266631 0.000000 -0.221736 -0.975107 35 35 35 1.000000
-0.002925 -0.244269 0.427295 0.000000 1.000000 0.000000 80 83 78 1.000000
-0.023174 -0.192573 0.376341 0.000000 -1.000000 -0.000000 80 80 80 1.000000
-0.489932 0.041543 -0.273269 0.000000 0.221736 0.975107 24 11 7 1.000000
-0.113843 0.686179 -0.380095 0.000000 0.221736 0.975107 35 35 35 1.000000
-0.397965 0.641283 -0.409648 0.000000 0.221736 0.975107 103 83 72 1.000000
-0.448249 0.376252 -0.349381 0.000000 -0.221736 -0.975107 35 35 35 1.000000
0.381204 -0.192573 -0.133788 0.000000 -1.000000 -0.000000 33 22 17 1.000000
-0.227762 0.092044 -0.284753 0.000000 -0.221736 -0.975107 35 35 35 1.000000
-0.469416 0.718344 -0.410773 0.027559 -0.974736 0.221651 35 22 18 1.000000
-0.372435 -0.244269 -0.210047 0.000000 1.000000 0.000000 24 11 7 1.000000
-0.458722 -0.192573 0.461127 0.000000 -1.000000 -0.000000 8 6 7 1.000000
-0.165001 -0.244269 0.180743 0.000000 1.000000 0.000000 9 5 7 1.000000
-0.322378 -0.244269 0.479277 0.000000 -1.000000 -0.000000 35 35 35 1.000000
0.288853 0.703258 -0.383979 0.000000 0.221736 0.975107 35 35 35 1.000000
-0.414267 0.421864 -0.359753 0.000000 -0.221736 -0.975107 35 35 35 1.000000
0.354866 0.610377 -0.402620 0.000000 0.221736 0.975107 7 5 6 1.000000
0.319651 -0.101969 -0.202791 0.000000 -0.975107 0.221736 33 96 221 1.000000
-0.033146 0.473772 -0.371556 0.000000 -0.221736 -0.975107 35 35 35 1.000000
-0.173680 -0.244269 0.108031 0.000000 -1.000000 -0.000000 35 35 35 1.000000
-0.515405 -0.192573 0.413081 0.000000 -1.000000 -0.000000 9 7 8 1.000000
-0.440997 -0.192573 0.361980 0.000000 -1.000000 -0.000000 80 80 80 1.000000
0.036325 -0.192573 0.056124 0.000000 1.000000 0.000000 123 125 98 1.000000
-0.347534 -0.183707 -0.062035 0.000000 -1.000000 -0.000000 80 80 80 1.000000
0.368192 0.068674 -0.252931 0.000000 -0.221736 -0.975107 32 22 19 1.000000
0.462041 0.182800 -0.305390 0.000000 0.221736 0.975107 67 62 70 1.000000
-0.157091 0.158284 -0.273308 0.000000 -0.221736 -0.975107 82 77 70 1.000000
0.531384 0.545044 -0.361255 0.000000 0.221736 0.975107 84 58 49 1.000000
0.236431 0.347073 -0.316238 0.000000 -0.221736 -0.975107 33 23 22 1.000000
0.077722 0.176535 -0.303966 0.000000 -0.221736 -0.975107 41 31 97 1.000000
0.641229 -0.126529 -0.219463 -0.999997 -0.002373 0.000540 7 5 6 1.000000
0.593400 -0.244269 0.092157 0.000000 -1.000000 -0.000000 35 35 35 1.000000
-0.148210 -0.192573 0.647698 0.000000 -1.000000 -0.000000 35 35 35 1.000000
0.207459 0.001625 -0.237684 0.000000 0.221736 0.975107 54 32 7 1.000000
-0.331970 0.358681 -0.318877 0.000000 0.221736 0.975107 86 84 85 1.000000
0.145782 -0.244269 0.621426 0.000000 1.000000 0.000000 116 113 118 1.000000
0.090895 0.569941 -0.366917 0.000000 0.221736 0.975107 121 80 36 1.000000
0.308581 -0.244269 0.578237 0.000000 -1.000000 -0.000000 35 35 35 1.000000
0.231088 0.719224 -0.387609 0.000000 0.221736 0.975107 35 35 35 1.000000
-0.144134 0.256260 -0.295587 0.000000 0.221736 0.975107 93 91 98 1.000000
0.165123 -0.244269 0.683043 0.000000 -1.000000 -0.000000 35 35 35 1.000000
-0.325120 -0.192573 0.502407 0.000000 -1.000000 -0.000000 3 1 0 1.000000
0.443987 0.481042 -0.373210 0.000000 -0.221736 -0.975107 35 35 35 1.000000
0.418659 0.157255 -0.299582 0.000000 -0.221736 -0.975107 35 35 35 1.000000
-0.347133 -0.244269 -0.041280 0.000000 -1.000000 -0.000000 35 35 35 1.000000
-0.499470 -0.244269 0.493938 0.000000 -1.000000 -0.000000 35 35 35 1.000000
-0.560775 0.121555 -0.291464 0.000000 -0.221736 -0.975107 35 35 35 1.000000
0.445397 0.720926 -0.387996 0.000000 -0.221736 -0.975107 51 38 34 1.000000
-0.423699 -0.244269 0.162587 0.000000 -1.000000 -0.000000 35 35 35 1.000000
-0.474439 -0.174842 0.222839 0.000000 -1.000000 -0.000000 80 80 80 1.000000
-0.114749 -0.244269 -0.059278 0.000000 -1.000000 -0.000000 35 35 35 1.000000
-0.081009 -0.222839 -0.220032 0.000000 0.000000 -1.000000 35 35 35 1.000000
0.088687 0.237887 -0.317917 0.000000 0.221736 0.975107 212 175 68 1.000000
-0.555553 -0.192573 0.375617 0.000000 -1.000000 -0.000000 66 53 31 1.000000
-0.449446 0.450933 -0.366363 0.000000 -0.221736 -0.975107 35 35 35 1.000000
0.364490 -0.192573 0.351247 0.000000 1.000000 0.000000 80 80 80 1.000000
-0.158218 0.089243 -0.257608 0.000000 -0.221736 -0.975107 2 4 4 1.000000
0.095629 0.342839 -0.315275 0.000000 -0.221736 -0.975107 43 39 23 1.000000
0.494221 -0.192573 -0.096968 0.000000 1.000000 0.000000 39 32 66 1.000000
0.607414 -0.244269 0.316851 0.000000 -1.000000 -0.000000 35 35 35 1.000000
-0.500644 -0.244269 0.224428 0.000000 -1.000000 -0.000000 35 35 35 1.000000
-0.273527 -0.244269 0.148568 0.000000 -1.000000 -0.000000 35 35 35 1.000000
-0.417820 0.453061 -0.366847 0.000000 0.221736 0.975107 31 18 14 1.000000
-0.263848 0.689469 -0.420605 0.000000 0.221736 0.975107 32 92 218 1.000000
0.286930 0.195178 -0.308205 0.000000 -0.221736 -0.975107 35 35 35 1.000000
-0.273104 0.442145 -0.364364 0.000000 -0.221736 -0.975107 35 35 35 1.000000
0.086499 -0.244269 0.299241 0.000000 1.000000 0.000000 39 42 47 1.000000
0.017017 -0.192573 0.558288 0.000000 -1.000000 -0.000000 35 35 35 1.000000
0.273045 -0.004593 -0.262778 0.000000 -0.221736 -0.975107 35 35 35 1.000000
0.299727 -0.178530 0.319793 0.874767 0.484544 0.000000 80 80 80 1.000000
-0.376332 -0.244269 0.059124 0.000000 1.000000 0.000000 8 6 5 1.000000
-0.065675 -0.175812 0.196139 -0.874767 -0.484544 -0.000000 80 80 80 1.000000
-0.017980 0.246348 -0.319841 0.000000 0.221736 0.975107 240 238 239 1.000000
0.230330 -0.244269 -0.133583 0.000000 -1.000000 -0.000000 35 35 35 1.000000
0.235381 0.530787 -0.358013 0.000000 0.221736 0.975107 22 9 5 1.000000
0.242066 0.612855 -0.403183 0.000000 0.221736 0.975107 6 4 3 1.000000
-0.444134 -0.087464 -0.217425 0.000000 0.221736 0.975107 39 104 218 1.000000
0.182994 -0.175976 -0.147045 0.000000 0.975107 -0.221736 35 35 35 1.000000
0.157316 -0.174842 0.087650 0.000000 -1.000000 -0.000000 80 80 80 1.000000
0.134832 0.034090 -0.245066 0.000000 -0.221736 -0.975107 68 47 16 1.000000
0.510800 -0.050353 -0.225864 0.000000 0.221736 0.975107 23 10 6 1.000000
0.185099 -0.181215 0.248485 -0.533280 -0.845939 -0.000000 80 80 80 1.000000
0.477628 0.196653 -0.282032 0.000000 -0.221736 -0.975107 57 49 50 1.000000
0.237497 0.190966 -0.280739 0.000000 -0.221736 -0.975107 52 51 43 1.000000
-0.506702 -0.218301 -0.220032 0.000000 -0.000000 1.000000 29 19 16 1.000000
0.573436 -0.192573 0.413261 0.000000 -1.000000 -0.000000 4 2 3 1.000000
0.302010 -0.192573 -0.189954 0.000000 1.000000 0.000000 35 35 35 1.000000
-0.384593 0.660422 -0.374238 0.000000 -0.221736 -0.975107 47 101 213 1.000000
0.494474 -0.192573 0.063519 0.000000 -1.000000 -0.000000 80 80 80 1.000000
-0.229928 0.251460 -0.294495 0.000000 -0.221736 -0.975107 113 111 118 1.000000
-0.447907 -0.176750 -0.150451 0.000000 0.975107 -0.221736 35 35 35 1.000000
0.415429 -0.192573 0.560574 0.000000 -1.000000 -0.000000 87 64 58 1.000000
-0.485533 -0.244269 0.630318 0.000000 -1.000000 -0.000000 35 35 35 1.000000
-0.116786 -0.192573 0.070333 0.000000 -1.000000 -0.000000 80 80 80 1.000000
-0.432943 -0.192573 0.543521 0.000000 1.000000 0.000000 35 35 35 1.000000
-0.404411 0.112303 -0.289360 0.000000 -0.221736 -0.975107 35 35 35 1.000000
-0.132652 -0.244269 0.317183 0.000000 1.000000 0.000000 18 15 20 1.000000
0.502776 -0.174842 0.208220 0.000000 1.000000 0.000000 80 80 80 1.000000
-0.226584 -0.098541 -0.214906 0.000000 0.221736 0.975107 50 127 245 1.000000
0.328438 0.349141 -0.343216 0.000000 -0.221736 -0.975107 35 35 35 1.000000
0.030427 0.704438 -0.424009 0.000000 -0.221736 -0.975107 35 35 35 1.000000
-0.017983 -0.244269 0.166914 0.000000 -1.000000 -0.000000 35 35 35 1.000000
-0.494610 0.192773 -0.307658 0.000000 0.221736 0.975107 40 30 27 1.000000
-0.396152 0.543412 -0.387392 0.000000 0.221736 0.975107 85 65 60 1.000000
0.272672 0.618481 -0.377955 0.000000 -0.221736 -0.975107 18 5 1 1.000000
-0.625333 -0.215538 -0.100660 0.999998 0.000000 -0.001949 141 139 146 1.000000
0.396140 -0.232869 -0.220032 0.000000 0.000000 -1.000000 35 35 35 1.000000
-0.057695 -0.244269 0.309793 0.000000 -1.000000 -0.000000 35 35 35 1.000000
-0.540807 0.590156 -0.359538 1.000000 0.000000 0.000000 35 35 35 1.000000
-0.056985 -0.192573 -0.114879 0.000000 1.000000 0.000000 155 115 31 1.000000
0.057807 -0.176004 -0.147169 0.000000 -0.975107 0.221736 35 35 35 1.000000
-0.319969 0.562499 -0.365225 0.000000 -0.221736 -0.975107 6 4 3 1.000000
0.074876 0.030949 -0.244352 0.000000 -0.221736 -0.975107 66 60 50 1.000000
0.048738 0.550969 -0.389111 0.000000 0.221736 0.975107 13 10 15 1.000000
0.438482 -0.192573 -0.105653 0.000000 1.000000 0.000000 32 24 41 1.000000
0.310331 -0.244269 0.263778 0.000000 -1.000000 -0.000000 35 35 35 1.000000
0.190935 0.345892 -0.342477 0.000000 0.221736 0.975107 138 134 134 1.000000
0.265618 -0.192573 0.294260 0.000000 -1.000000 -0.000000 80 80 80 1.000000
-0.251182 -0.244269 0.014523 0.000000 -1.000000 -0.000000 35 35 35 1.000000
0.100850 -0.187216 -0.092269 0.000000 0.477683 -0.878532 80 80 80 1.000000
0.435812 0.582066 -0.369674 0.000000 -0.221736 -0.975107 72 54 52 1.000000
0.351392 -0.244269 -0.143007 0.000000 -1.000000 -0.000000 35 35 35 1.000000
-0.440284 -0.183707 -0.011612 0.000000 -1.000000 -0.000000 80 80 80 1.000000
0.197388 -0.244269 -0.011379 0.000000 -1.000000 -0.000000 35 35 35 1.000000
-0.113386 -0.244269 0.075604 0.000000 -1.000000 -0.000000 35 35 35 1.000000
0.523425 0.553655 -0.389721 0.000000 -0.221736 -0.975107 35 35 35 1.000000
0.166575 -0.139065 -0.232200 0.000000 -0.221736 -0.975107 35 35 35 1.000000
0.019891 -0.174842 -0.000594 0.000000 1.000000 0.000000 80 80 80 1.000000
0.145300 0.443727 -0.338216 0.000000 -0.221736 -0.975107 154 110 71 1.000000
0.117602 -0.244269 0.492123 0.000000 1.000000 0.000000 62 65 58 1.000000
-0.216725 -0.244269 0.150799 0.000000 1.000000 0.000000 7 3 3 1.000000
0.610743 -0.049125 -0.212890 0.000000 -0.221736 -0.975107 5 3 4 1.000000
0.140257 -0.192573 0.225062 0.000000 1.000000 0.000000 80 80 80 1.000000
0.351959 -0.192573 0.014962 0.000000 -1.000000 -0.000000 80 80 80 1.000000
-0.032684 -0.192573 -0.164427 0.000000 -1.000000 -0.000000 31 15 12 1.000000
-0.064567 -0.192573 0.221406 0.000000 -1.000000 -0.000000 109 106 103 1.000000
-0.234531 0.196019 -0.308396 0.000000 0.221736 0.975107 73 60 42 1.000000
0.417226 -0.174842 0.323045 0.000000 -1.000000 -0.000000 80 80 80 1.000000
-0.505184 0.255697 -0.321967 0.000000 0.221736 0.975107 115 111 113 1.000000
0.082719 -0.192573 0.557167 0.000000 -1.000000 -0.000000 35 35 35 1.000000
0.609871 0.243634 -0.279462 0.000000 -0.221736 -0.975107 5 0 0 1.000000
0.260763 -0.244269 -0.090646 0.000000 -1.000000 -0.000000 35 35 35 1.000000
-0.251413 -0.183707 -0.057074 0.000000 1.000000 0.000000 80 80 80 1.000000
-0.398430 -0.244269 0.191222 0.000000 1.000000 0.000000 23 25 25 1.000000
-0.378479 -0.049171 -0.252641 0.000000 0.221736 0.975107 30 86 211 1.000000
-0.531150 -0.174842 0.262381 0.000000 -1.000000 -0.000000 80 80 80 1.000000
0.380205 -0.244269 -0.116203 0.000000 1.000000 0.000000 28 26 27 1.000000
-0.601269 -0.192573 0.543317 0.000000 -1.000000 -0.000000 231 230 234 1.000000
-0.326371 -0.174842 0.210959 0.000000 -1.000000 -0.000000 80 80 80 1.000000
0.641229 0.566831 -0.362369 -0.999573 -0.028508 0.006483 9 7 8 1.000000
0.210881 -0.192573 0.445276 0.000000 -1.000000 -0.000000 29 22 0 1.000000
0.443620 -0.192573 0.607590 0.000000 -1.000000 -0.000000 87 66 59 1.000000
-0.219095 -0.192573 -0.206059 0.000000 1.000000 0.000000 35 35 35 1.000000
-0.173807 -0.192573 0.057495 0.000000 -1.000000 -0.000000 80 80 80 1.000000
0.033271 -0.192573 0.673122 0.000000 -1.000000 -0.000000 37 24 20 1.000000
-0.135135 -0.244269 -0.157572 0.000000 1.000000 0.000000 77 50 45 1.000000
0.093658 -0.192573 0.079625 0.000000 -1.000000 -0.000000 64 66 66 1.000000
0.344545 -0.192573 0.400468 0.000000 -1.000000 -0.000000 53 43 38 1.000000
-0.091075 0.376773 -0.322991 0.000000 -0.221736 -0.975107 93 96 91 1.000000
0.527067 -0.244269 0.265476 0.000000 1.000000 0.000000 7 3 3 1.000000
0.271340 -0.244269 -0.153144 0.000000 -1.000000 -0.000000 35 35 35 1.000000
0.429270 0.497992 -0.350556 0.000000 0.221736 0.975107 104 83 76 1.000000
0.180824 -0.244269 0.309294 0.000000 1.000000 0.000000 112 99 53 1.000000
0.554999 -0.055116 -0.251289 0.000000 0.221736 0.975107 24 102 163 1.000000
0.353145 -0.183707 -0.016402 0.000000 -1.000000 -0.000000 80 80 80 1.000000
0.020498 0.328755 -0.338580 0.000000 0.221736 0.975107 57 70 100 1.000000
-0.020822 -0.242673 -0.220032 0.000000 0.000000 -1.000000 35 35 35 1.000000
-0.074384 -0.192573 0.405976 0.000000 1.000000 0.000000 121 118 135 1.000000
-0.265441 -0.192573 -0.024800 0.000000 1.000000 0.000000 80 80 80 1.000000
-0.402058 -0.244269 -0.056842 0.000000 1.000000 0.000000 54 52 53 1.000000
-0.279906 -0.192573 0.459544 0.000000 -1.000000 -0.000000 3 7 6 1.000000
-0.480359 -0.244269 0.456065 0.000000 1.000000 0.000000 35 33 32 1.000000
0.641229 -0.007562 -0.234005 -0.999976 -0.006776 0.001541 6 8 8 1.000000
0.608983 -0.079968 -0.245638 0.000000 -0.221736 -0.975107 35 35 35 1.000000
-0.167839 0.392113 -0.326479 0.000000 -0.221736 -0.975107 10 13 18 1.000000
-0.084066 -0.244269 0.258491 0.000000 -1.000000 -0.000000 35 35 35 1.000000
-0.279402 -0.063440 -0.222888 0.000000 -0.221736 -0.975107 8 6 7 1.000000
0.490898 -0.187016 -0.195593 0.000000 0.975107 -0.221736 93 66 63 1.000000
0.006830 -0.192573 0.620633 0.000000 -1.000000 -0.000000 35 35 35 1.000000
-0.594972 0.425091 -0.320724 0.000000 0.221736 0.975107 35 35 35 1.000000
-0.625333 0.024474 -0.230489 0.999967 -0.007901 0.001797 27 14 10 1.000000
-0.365135 -0.244269 0.656393 0.000000 -1.000000 -0.000000 35 35 35 1.000000
-0.023229 0.118476 -0.264255 0.000000 0.221736 0.975107 42 45 42 1.000000
0.459673 -0.244269 0.506684 0.000000 -1.000000 -0.000000 35 35 35 1.000000
0.032962 0.075169 -0.280916 0.000000 -0.221736 -0.975107 35 35 35 1.000000
0.214825 -0.178458 -0.157962 0.000000 0.975107 -0.221736 35 35 35 1.000000
0.638322 0.529689 -0.384272 0.000000 0.221736 0.975107 90 69 62 1.000000
0.452358 -0.183707 0.208952 0.000000 -1.000000 -0.000000 80 80 80 1.000000
-0.346156 -0.244269 0.121192 0.000000 1.000000 0.000000 46 48 48 1.000000
-0.098448 -0.174842 0.019386 0.000000 -1.000000 -0.000000 80 80 80 1.000000
-0.225422 0.228355 -0.315750 0.000000 0.221736 0.975107 67 65 54 1.000000
-0.614643 0.211206 -0.311850 0.000000 0.221736 0.975107 108 106 113 1.000000
0.611823 0.094178 -0.285238 0.000000 -0.221736 -0.975107 35 35 35 1.000000
-0.233327 0.155711 -0.272722 0.000000 -0.221736 -0.975107 74 71 66 1.000000
0.280071 -0.192573 0.046048 0.000000 -1.000000 -0.000000 55 54 72 1.000000
0.270675 -0.192573 0.347097 0.000000 -1.000000 -0.000000 161 130 87 1.000000
-0.381580 -0.205891 0.710503 -0.022866 -0.000000 0.999739 50 44 50 1.000000
-0.270893 0.315548 -0.309069 0.000000 0.221736 0.975107 36 34 35 1.000000
-0.401853 -0.192573 -0.077948 0.000000 -1.000000 -0.000000 80 80 80 1.000000
-0.111342 0.595486 -0.372726 0.000000 -0.221736 -0.975107 33 25 34 1.000000
0.090418 0.375195 -0.322632 0.000000 0.221736 0.975107 119 108 94 1.000000
0.061458 0.414462 -0.331561 0.000000 0.221736 0.975107 82 75 69 1.000000
0.403089 0.045200 -0.274101 0.000000 0.221736 0.975107 7 5 6 1.000000
-0.431609 0.497888 -0.350532 0.000000 0.221736 0.975107 8 6 5 1.000000
0.266493 -0.192573 0.452016 0.000000 1.000000 0.000000 35 35 35 1.000000
-0.397421 -0.021323 -0.232466 0.000000 -0.221736 -0.975107 6 4 5 1.000000
0.446086 0.623623 -0.405632 0.000000 -0.221736 -0.975107 35 35 35 1.000000
-0.268693 -0.174842 0.318631 0.000000 -1.000000 -0.000000 80 80 80 1.000000
-0.625333 -0.213767 0.061079 0.999968 0.000000 -0.007979 166 164 165 1.000000
0.480466 -0.192573 -0.056576 0.000000 -1.000000 -0.000000 80 80 80 1.000000
-0.295106 -0.181215 0.198071 0.874767 -0.484544 -0.000000 80 80 80 1.000000
0.568580 0.719584 -0.405321 -0.032361 -0.974596 0.221620 53 40 36 1.000000
0.472672 -0.192573 0.703200 0.000000 -1.000000 -0.000000 16 6 1 1.000000
-0.038713 0.016773 -0.241129 0.000000 0.221736 0.975107 52 54 54 1.000000
-0.138327 -0.161843 -0.187258 0.000000 0.221736 0.975107 35 35 35 1.000000
0.146377 0.092752 -0.284914 0.000000 -0.221736 -0.975107 35 35 35 1.000000
-0.278767 -0.244269 0.375637 0.000000 -1.000000 -0.000000 35 35 35 1.000000
-0.246451 -0.244269 0.256824 0.000000 -1.000000 -0.000000 35 35 35 1.000000
0.247270 -0.192573 0.325048 0.000000 1.000000 0.000000 80 80 80 1.000000
-0.068139 -0.244269 -0.160570 0.000000 -1.000000 -0.000000 35 35 35 1.000000
0.577763 -0.244269 -0.189569 0.000000 1.000000 0.000000 38 12 9 1.000000
0.423353 0.029488 -0.244020 0.000000 -0.221736 -0.975107 32 19 15 1.000000
0.131775 -0.244269 0.687729 0.000000 -1.000000 -0.000000 35 35 35 1.000000
0.307781 -0.192573 0.172864 0.000000 1.000000 0.000000 80 80 80 1.000000
0.038717 0.110133 -0.288866 0.000000 -0.221736 -0.975107 34 127 225 1.000000
-0.021859 -0.244269 0.214750 0.000000 -1.000000 -0.000000 35 35 35 1.000000
0.535801 0.495701 -0.376543 0.000000 0.221736 0.975107 37 16 9 1.000000
0.459837 -0.192573 0.538409 0.000000 1.000000 0.000000 35 35 35 1.000000
-0.090800 0.317390 -0.309488 0.000000 -0.221736 -0.975107 111 109 116 1.000000
-0.152749 0.293967 -0.330669 0.000000 -0.221736 -0.975107 29 32 94 1.000000
-0.064897 -0.244269 0.162394 0.000000 -1.000000 -0.000000 35 35 35 1.000000
-0.403948 -0.065942 -0.248828 0.000000 0.221736 0.975107 24 9 2 1.000000
0.518447 -0.142677 -0.191616 0.000000 0.221736 0.975107 35 35 35 1.000000
0.086168 -0.192573 0.613742 0.000000 -1.000000 -0.000000 35 35 35 1.000000
-0.453404 -0.192573 -0.047142 0.000000 1.000000 0.000000 80 80 80 1.000000
0.441918 0.298176 -0.331627 0.000000 -0.221736 -0.975107 35 35 35 1.000000
0.339307 -0.244269 0.239429 0.000000 -1.000000 -0.000000 35 35 35 1.000000
0.272272 -0.244269 0.425939 0.000000 1.000000 0.000000 47 47 47 1.000000
-0.168289 -0.081212 -0.245355 0.000000 -0.221736 -0.975107 35 35 35 1.000000
-0.186664 -0.244269 0.427622 0.000000 -1.000000 -0.000000 35 35 35 1.000000
0.561598 0.693217 -0.421457 0.000000 -0.221736 -0.975107 35 35 35 1.000000
-0.620852 -0.215619 0.659950 0.942798 0.000000 -0.333363 77 56 25 1.000000
-0.446341 -0.244269 0.304801 0.000000 1.000000 0.000000 11 13 13 1.000000
-0.094052 -0.244269 0.473223 0.000000 1.000000 0.000000 59 43 14 1.000000
-0.173622 0.416247 -0.358476 0.000000 -0.221736 -0.975107 35 35 35 1.000000
-0.602473 -0.015277 -0.220586 0.000000 0.221736 0.975107 35 35 35 1.000000
0.543318 0.677309 -0.378078 0.000000 -0.221736 -0.975107 28 13 6 1.000000
0.472587 0.649561 -0.411530 0.000000 0.221736 0.975107 6 4 5 1.000000
0.320733 -0.244269 0.677710 0.000000 -1.000000 -0.000000 35 35 35 1.000000
0.229310 0.076153 -0.281139 0.000000 -0.221736 -0.975107 35 35 35 1.000000
-0.116729 0.608641 -0.402225 0.000000 -0.221736 -0.975107 35 35 35 1.000000
-0.277017 -0.174842 0.005179 0.000000 -1.000000 -0.000000 80 80 80 1.000000
-0.596269 -0.140016 -0.231983 0.000000 0.221736 0.975107 98 73 57 1.000000
-0.533796 0.270828 -0.325408 0.000000 0.221736 0.975107 161 159 166 1.000000
-0.440864 -0.131942 -0.194057 0.000000 0.221736 0.975107 35 35 35 1.000000
0.099748 0.656643 -0.413141 0.000000 0.221736 0.975107 9 5 5 1.000000
0.441545 -0.240615 0.710503 -0.025452 0.000000 -0.999676 52 42 37 1.000000
-0.577752 0.035296 -0.232086 0.000000 -0.221736 -0.975107 27 11 8 1.000000
-0.091990 0.507636 -0.379257 0.000000 0.221736 0.975107 31 26 10 1.000000
0.539455 -0.175039 0.124015 0.000000 -0.553078 -0.833130 80 80 80 1.000000
0.636286 0.330324 -0.338937 0.000000 0.221736 0.975107 61 49 49 1.000000
-0.356335 0.056202 -0.276603 0.000000 0.221736 0.975107 62 52 49 1.000000
-0.291018 0.290195 -0.329812 0.000000 0.221736 0.975107 133 131 138 1.000000
0.217163 0.038378 -0.246041 0.000000 0.221736 0.975107 107 79 45 1.000000
0.313456 -0.244269 0.497929 0.000000 1.000000 0.000000 62 55 35 1.000000
-0.597289 0.457822 -0.367929 0.000000 0.221736 0.975107 43 17 14 1.000000
0.613626 -0.192573 0.636675 0.000000 1.000000 0.000000 35 35 35 1.000000
0.245442 -0.244269 -0.056402 0.000000 1.000000 0.000000 79 76 83 1.000000
0.068941 0.619638 -0.404726 0.000000 -0.221736 -0.975107 35 35 35 1.000000
-0.382242 -0.192573 0.362908 0.000000 1.000000 0.000000 80 80 80 1.000000
-0.071602 -0.192573 0.257895 0.000000 1.000000 0.000000 80 80 80 1.000000
0.129774 -0.191902 -0.220185 0.000000 0.221736 0.975107 15 12 17 1.000000
-0.430283 -0.088497 -0.243699 0.000000 0.221736 0.975107 77 60 54 1.000000
0.363202 -0.192573 0.567384 0.000000 -1.000000 -0.000000 93 74 66 1.000000
0.337454 -0.183707 0.280455 0.000000 1.000000 0.000000 80 80 80 1.000000
0.641229 0.196495 -0.287671 -0.999888 -0.014564 0.003312 125 127 130 1.000000
-0.625333 0.403983 -0.320183 0.999738 -0.022301 0.005071 37 17 12 1.000000
0.626180 0.065019 -0.278608 0.000000 -0.221736 -0.975107 35 35 35 1.000000
-0.035096 0.320506 -0.310196 0.000000 0.221736 0.975107 24 26 29 1.000000
-0.359847 -0.244269 0.179385 0.000000 -1.000000 -0.000000 35 35 35 1.000000
0.171871 0.712044 -0.385977 0.000000 -0.221736 -0.975107 53 29 15 1.000000
0.257276 0.241242 -0.318680 0.000000 -0.221736 -0.975107 35 35 35 1.000000
0.180465 -0.244269 0.471460 0.000000 1.000000 0.000000 121 101 54 1.000000
-0.565212 0.484659 -0.334270 0.000000 -0.221736 -0.975107 38 12 9 1.000000
-0.370447 -0.000395 -0.237225 0.000000 0.221736 0.975107 6 4 5 1.000000
0.483235 0.640357 -0.372529 0.000000 0.975107 -0.221736 33 7 4 1.000000
0.430387 -0.131341 -0.194194 0.000000 -0.221736 -0.975107 77 54 50 1.000000
0.265233 -0.048629 -0.226256 0.000000 0.221736 0.975107 28 19 12 1.000000
0.205441 0.375086 -0.349116 0.000000 0.221736 0.975107 107 103 105 1.000000
0.462579 -0.192573 0.302321 0.000000 1.000000 0.000000 80 80 80 1.000000
-0.448957 0.303314 -0.306287 0.000000 0.221736 0.975107 43 40 45 1.000000
-0.510719 0.247859 -0.293677 0.000000 0.221736 0.975107 230 231 237 1.000000
0.024637 -0.206906 -0.220032 0.000000 0.000000 -1.000000 35 35 35 1.000000
0.359860 0.496108 -0.350127 0.000000 -0.221736 -0.975107 90 70 65 1.000000
0.233413 -0.244269 0.464070 0.000000 1.000000 0.000000 66 65 59 1.000000
-0.381315 -0.174842 0.003880 0.000000 1.000000 0.000000 80 80 80 1.000000
-0.056436 0.675769 -0.377728 0.000000 0.221736 0.975107 35 35 35 1.000000
0.446178 -0.244269 -0.118143 0.000000 1.000000 0.000000 2 0 1 1.000000
-0.392501 0.070125 -0.253260 0.000000 -0.221736 -0.975107 81 79 80 1.000000
-0.143313 -0.192573 0.490639 0.000000 -1.000000 -0.000000 35 35 35 1.000000
-0.229135 0.685555 -0.419715 0.000000 -0.221736 -0.975107 35 35 35 1.000000
0.308433 0.157024 -0.273021 0.000000 0.221736 0.975107 45 37 36 1.000000
0.641229 -0.201819 0.633747 -0.999466 0.000000 -0.032681 118 120 121 1.000000
0.609477 -0.244269 0.431385 0.000000 -1.000000 -0.000000 35 35 35 1.000000
0.135276 -0.244269 0.206114 0.000000 -1.000000 -0.000000 35 35 35 1.000000
-0.249563 -0.192573 -0.166215 0.000000 -1.000000 -0.000000 20 64 165 1.000000
0.098956 0.265626 -0.324225 0.000000 0.221736 0.975107 116 173 41 1.000000
-0.339985 -0.056563 -0.224452 0.000000 0.221736 0.975107 4 2 1 1.000000
0.604426 0.609949 -0.402522 0.000000 0.221736 0.975107 106 83 77 1.000000
0.341683 -0.244269 -0.017758 0.000000 -1.000000 -0.000000 35 35 35 1.000000
-0.321046 0.622468 -0.378861 0.000000 -0.221736 -0.975107 5 3 2 1.000000
0.262115 -0.192573 0.408559 0.000000 1.000000 0.000000 35 35 35 1.000000
0.254800 -0.210488 0.710503 0.014493 -0.000000 0.999895 49 48 50 1.000000
-0.051259 -0.192573 0.693314 0.000000 -1.000000 -0.000000 29 13 10 1.000000
-0.376919 0.279458 -0.300862 0.000000 -0.221736 -0.975107 172 172 172 1.000000
-0.302389 0.250672 -0.294316 0.000000 0.221736 0.975107 111 114 119 1.000000
0.195528 0.172387 -0.303023 0.000000 -0.221736 -0.975107 35 35 35 1.000000
0.516917 -0.009132 -0.261746 0.000000 -0.221736 -0.975107 35 35 35 1.000000
-0.128785 -0.244269 0.417622 0.000000 1.000000 0.000000 56 46 25 1.000000
0.084149 0.502898 -0.378180 0.000000 0.221736 0.975107 5 8 13 1.000000
0.447564 -0.174842 0.099932 0.000000 1.000000 0.000000 80 80 80 1.000000
0.373330 -0.244269 0.397071 0.000000 -1.000000 -0.000000 35 35 35 1.000000
0.478760 0.296151 -0.304658 0.000000 0.221736 0.975107 61 45 42 1.000000
0.061023 -0.181409 0.042775 0.000000 -0.553078 -0.833130 80 80 80 1.000000
-0.139358 -0.174842 0.083526 0.000000 -1.000000 -0.000000 80 80 80 1.000000
-0.173923 -0.178499 -0.144418 0.000000 -0.000000 1.000000 35 35 35 1.000000
-0.017679 -0.174842 0.197737 0.000000 1.000000 0.000000 80 80 80 1.000000
0.531599 -0.174842 0.260667 0.000000 -1.000000 -0.000000 80 80 80 1.000000
0.237614 0.653377 -0.412398 0.000000 0.221736 0.975107 5 3 2 1.000000
-0.006478 0.555923 -0.390237 0.000000 0.221736 0.975107 18 15 20 1.000000
-0.485493 -0.058228 -0.250582 0.000000 0.221736 0.975107 35 97 220 1.000000
0.575780 -0.047306 -0.213303 0.000000 0.221736 0.975107 35 35 35 1.000000
0.311385 -0.244269 0.320609 0.000000 1.000000 0.000000 59 61 61 1.000000
0.559535 -0.148387 -0.230080 0.000000 -0.221736 -0.975107 35 35 35 1.000000
-0.113605 -0.192573 0.116775 0.000000 -1.000000 -0.000000 80 80 80 1.000000
-0.414089 0.244730 -0.292965 0.000000 0.221736 0.975107 147 147 157 1.000000
-0.033168 -0.192573 0.561700 0.000000 1.000000 0.000000 204 198 232 1.000000
0.074854 0.322660 -0.337194 0.000000 -0.221736 -0.975107 199 90 46 1.000000
0.212537 -0.052836 -0.251808 0.000000 -0.221736 -0.975107 35 35 35 1.000000
-0.239109 0.513910 -0.380684 0.000000 -0.221736 -0.975107 35 35 35 1.000000
-0.533113 -0.183707 0.317869 0.000000 -1.000000 -0.000000 80 80 80 1.000000
-0.257421 -0.174842 0.194060 0.000000 1.000000 0.000000 80 80 80 1.000000
-0.352836 0.196921 -0.282093 0.000000 0.221736 0.975107 68 69 59 1.000000
0.504681 0.718008 -0.387333 0.000000 0.221736 0.975107 35 35 35 1.000000
0.365465 0.450863 -0.366347 0.000000 0.221736 0.975107 15 13 12 1.000000
0.261194 -0.244269 0.040429 0.000000 -1.000000 -0.000000 35 35 35 1.000000
-0.362296 0.228269 -0.289222 0.000000 0.221736 0.975107 165 167 170 1.000000
-0.526686 -0.192573 0.685629 0.000000 -1.000000 -0.000000 43 32 34 1.000000
-0.349628 -0.015887 -0.260210 0.000000 -0.221736 -0.975107 35 35 35 1.000000
-0.201510 -0.192573 0.461994 0.000000 1.000000 0.000000 35 35 35 1.000000
-0.386356 -0.244269 0.608788 0.000000 -1.000000 -0.000000 35 35 35 1.000000
0.575358 0.672586 -0.377004 0.000000 -0.221736 -0.975107 10 8 9 1.000000
-0.154513 0.106233 -0.287979 0.000000 0.221736 0.975107 46 40 30 1.000000
0.215396 0.393892 -0.326884 0.000000 0.221736 0.975107 199 146 88 1.000000
-0.529032 -0.244269 -0.082379 0.000000 1.000000 0.000000 95 94 98 1.000000
-0.036491 -0.205876 -0.220032 0.000000 0.000000 -1.000000 35 35 35 1.000000
0.093177 -0.244269 0.001695 0.000000 1.000000 0.000000 39 36 41 1.000000
-0.368682 0.400202 -0.328319 0.000000 0.221736 0.975107 54 50 53 1.000000
0.106429 -0.119816 -0.196815 0.000000 0.221736 0.975107 35 35 35 1.000000
-0.068177 0.343498 -0.315425 0.000000 -0.221736 -0.975107 91 91 91 1.000000
-0.168007 0.552065 -0.362852 0.000000 0.221736 0.975107 22 19 26 1.000000
-0.007480 -0.244269 0.530356 0.000000 -1.000000 -0.000000 35 35 35 1.000000
-0.380579 -0.192573 0.568889 0.000000 -1.000000 -0.000000 5 3 2 1.000000
0.477028 -0.244269 0.408720 0.000000 1.000000 0.000000 52 38 23 1.000000
-0.485402 0.419504 -0.359216 0.000000 0.221736 0.975107 37 21 18 1.000000
-0.324129 0.477212 -0.345831 0.000000 -0.221736 -0.975107 8 6 5 1.000000
-0.158921 -0.174842 0.282649 0.000000 1.000000 0.000000 80 80 80 1.000000
0.539491 0.631947 -0.381017 0.000000 0.221736 0.975107 38 12 3 1.000000
0.199197 0.226161 -0.288742 0.000000 -0.221736 -0.975107 198 195 190 1.000000
0.577391 0.346402 -0.342593 0.000000 0.221736 0.975107 54 41 37 1.000000
0.467985 -0.192573 0.395730 0.000000 -1.000000 -0.000000 108 136 162 1.000000
-0.202763 0.147694 -0.297408 0.000000 0.221736 0.975107 68 50 22 1.000000
-0.564489 0.388537 -0.312412 0.000000 0.221736 0.975107 35 35 35 1.000000
0.194216 -0.192573 0.614887 0.000000 1.000000 0.000000 35 35 35 1.000000
0.169989 -0.244269 -0.167446 0.000000 -1.000000 -0.000000 35 35 35 1.000000
0.641229 -0.216076 -0.128742 -0.999999 0.000000 -0.001079 63 49 50 1.000000
-0.617842 -0.244269 0.178721 0.000000 1.000000 0.000000 106 104 111 1.000000
-0.332417 -0.083500 -0.244835 0.000000 -0.221736 -0.975107 35 35 35 1.000000
-0.291643 -0.192573 0.622495 0.000000 1.000000 0.000000 35 35 35 1.000000
-0.157260 -0.244269 0.053152 0.000000 -1.000000 -0.000000 35 35 35 1.000000
0.478798 -0.244269 -0.119691 0.000000 1.000000 0.000000 6 4 5 1.000000
-0.276371 -0.192573 0.516180 0.000000 -1.000000 -0.000000 75 136 239 1.000000
-0.536737 -0.192573 0.625970 0.000000 -1.000000 -0.000000 255 254 255 1.000000
0.306027 -0.192573 0.690368 0.000000 -1.000000 -0.000000 24 14 11 1.000000
0.426984 -0.167905 -0.225641 0.000000 0.221736 0.975107 6 4 3 1.000000
-0.227685 0.601226 -0.400539 0.000000 0.221736 0.975107 105 72 49 1.000000
-0.206036 0.050338 -0.248761 0.000000 0.221736 0.975107 51 54 59 1.000000
0.404482 0.392933 -0.353174 0.000000 -0.221736 -0.975107 35 35 35 1.000000
-0.019455 -0.244269 -0.186848 0.000000 1.000000 0.000000 38 17 12 1.000000
-0.587598 -0.244269 0.047774 0.000000 -1.000000 -0.000000 35 35 35 1.000000
-0.122118 0.330283 -0.338928 0.000000 -0.221736 -0.975107 44 55 88 1.000000
0.131269 -0.174842 0.336990 0.000000 1.000000 0.000000 80 80 80 1.000000
0.609910 0.440984 -0.364101 0.000000 -0.221736 -0.975107 35 35 35 1.000000
-0.594096 0.360453 -0.345788 0.000000 -0.221736 -0.975107 35 35 35 1.000000
0.564320 -0.073930 -0.207249 0.000000 -0.221736 -0.975107 2 0 1 1.000000
0.172845 0.347050 -0.316232 0.000000 -0.221736 -0.975107 74 50 26 1.000000
0.590348 -0.192573 0.075024 0.000000 1.000000 0.000000 24 24 38 1.000000
0.169600 0.478236 -0.346063 0.000000 0.221736 0.975107 223 137 30 1.000000
0.630188 -0.192573 -0.075899 0.000000 1.000000 0.000000 35 35 35 1.000000
-0.247197 0.277585 -0.300436 0.000000 -0.221736 -0.975107 84 83 87 1.000000
0.478787 -0.244269 0.668823 0.000000 -1.000000 -0.000000 35 35 35 1.000000
-0.587711 -0.244269 0.149722 0.000000 -1.000000 -0.000000 35 35 35 1.000000
0.579442 -0.192573 -0.073693 0.000000 1.000000 0.000000 80 80 80 1.000000
0.146088 -0.244269 0.154392 0.000000 1.000000 0.000000 118 119 125 1.000000
-0.349295 0.313723 -0.335162 0.000000 0.221736 0.975107 73 65 66 1.000000
0.495795 -0.244269 0.076117 0.000000 1.000000 0.000000 31 85 221 1.000000
0.081785 0.486077 -0.347846 0.000000 -0.221736 -0.975107 71 52 21 1.000000
0.005975 -0.192573 0.507018 0.000000 1.000000 0.000000 206 200 234 1.000000
0.197482 -0.092111 -0.242877 0.000000 -0.221736 -0.975107 35 35 35 1.000000
-0.251584 -0.192573 0.368243 0.000000 -1.000000 -0.000000 80 80 80 1.000000
0.186899 0.589996 -0.397985 0.000000 0.221736 0.975107 6 4 3 1.000000
-0.504158 -0.244269 0.148313 0.000000 -1.000000 -0.000000 35 35 35 1.000000
0.252021 -0.244269 0.526920 0.000000 1.000000 0.000000 47 39 24 1.000000
0.001830 0.054351 -0.249674 0.000000 0.221736 0.975107 10 10 8 1.000000
-0.024355 -0.192573 0.262913 0.000000 -1.000000 -0.000000 80 80 80 1.000000
-0.200124 0.517163 -0.381423 0.000000 0.221736 0.975107 165 100 7 1.000000
-0.433032 0.107812 -0.261831 0.000000 -0.221736 -0.975107 116 114 115 1.000000
-0.447020 0.195457 -0.281761 0.000000 0.221736 0.975107 173 174 180 1.000000
0.456908 -0.192573 0.655976 0.000000 -1.000000 -0.000000 107 87 74 1.000000
0.604640 -0.244269 -0.200541 0.000000 1.000000 0.000000 100 73 66 1.000000
0.364394 0.689590 -0.380871 0.000000 -0.221736 -0.975107 42 30 30 1.000000
0.207752 0.454668 -0.340704 0.000000 -0.221736 -0.975107 158 107 66 1.000000
0.279996 -0.192573 -0.102144 0.000000 -1.000000 -0.000000 54 35 26 1.000000
-0.546405 0.483286 -0.373720 0.000000 -0.221736 -0.975107 35 35 35 1.000000
0.552164 -0.192573 0.587374 0.000000 -1.000000 -0.000000 6 4 3 1.000000
0.444195 -0.244269 0.574697 0.000000 -1.000000 -0.000000 35 35 35 1.000000
-0.188460 -0.192573 0.406445 0.000000 -1.000000 -0.000000 4 7 12 1.000000
-0.080007 0.152530 -0.271999 0.000000 -0.221736 -0.975107 57 56 50 1.000000
0.198079 0.011281 -0.266388 0.000000 -0.221736 -0.975107 35 35 35 1.000000
-0.265642 -0.174842 0.263736 0.000000 1.000000 0.000000 80 80 80 1.000000
0.575511 0.043307 -0.273670 0.000000 0.221736 0.975107 42 29 25 1.000000
0.012895 0.187301 -0.306414 0.000000 0.221736 0.975107 104 96 64 1.000000
0.373152 0.519808 -0.382025 0.000000 0.221736 0.975107 10 8 9 1.000000
-0.053431 -0.244269 -0.091822 0.000000 1.000000 0.000000 9 9 9 1.000000
0.311962 0.661811 -0.374554 0.000000 0.221736 0.975107 35 35 35 1.000000
-0.287848 -0.110687 -0.238653 0.000000 0.221736 0.975107 22 9 5 1.000000
0.251795 0.470666 -0.370850 0.000000 -0.221736 -0.975107 35 35 35 1.000000
-0.106421 -0.035363 -0.229273 0.000000 0.221736 0.975107 5 6 12 1.000000
-0.429087 -0.244269 0.641176 0.000000 1.000000 0.000000 38 28 17 1.000000
0.489866 -0.244269 -0.008321 0.000000 1.000000 0.000000 43 101 212 1.000000
-0.076391 -0.244269 0.395144 0.000000 1.000000 0.000000 5 7 7 1.000000
-0.551507 -0.244269 0.032177 0.000000 -1.000000 -0.000000 35 35 35 1.000000
0.275499 -0.192573 0.505922 0.000000 -1.000000 -0.000000 24 16 15 1.000000
-0.152283 0.638966 -0.378647 0.000000 -0.975107 0.221736 35 35 35 1.000000
-0.165118 -0.058847 -0.223933 0.000000 -0.221736 -0.975107 9 10 16 1.000000
0.058470 -0.192573 0.427676 0.000000 1.000000 0.000000 154 150 172 1.000000
0.314621 -0.192573 0.424526 0.000000 -1.000000 -0.000000 22 12 9 1.000000
0.619225 0.299513 -0.292168 0.000000 0.221736 0.975107 35 35 35 1.000000
0.069374 0.098672 -0.259752 0.000000 -0.221736 -0.975107 37 31 21 1.000000
-0.112845 0.052711 -0.275809 0.000000 -0.221736 -0.975107 35 35 35 1.000000
0.614967 0.564049 -0.352323 0.000000 -0.221736 -0.975107 211 214 209 1.000000
-0.605410 -0.225272 -0.220032 0.000000 -0.000000 1.000000 183 185 188 1.000000
-0.625333 -0.224105 0.402028 0.999751 0.000000 -0.022314 48 51 56 1.000000
-0.364379 -0.174842 0.077358 0.000000 1.000000 0.000000 80 80 80 1.000000
0.087274 -0.244269 -0.184845 0.000000 1.000000 0.000000 57 41 38 1.000000
0.034861 0.457256 -0.367801 0.000000 0.221736 0.975107 8 11 16 1.000000
-0.373510 0.338669 -0.340835 0.000000 -0.221736 -0.975107 35 35 35 1.000000
0.341709 -0.021503 -0.232425 0.000000 0.221736 0.975107 57 47 42 1.000000
0.618633 0.700580 -0.413538 0.661315 0.731435 -0.166326 35 35 35 1.000000
0.119322 0.236845 -0.317680 0.000000 0.221736 0.975107 223 212 0 1.000000
0.273601 -0.244269 0.644328 0.000000 -1.000000 -0.000000 35 35 35 1.000000
0.044857 0.579736 -0.395652 0.000000 -0.221736 -0.975107 35 35 35 1.000000
-0.092797 -0.192573 0.515254 0.000000 -1.000000 -0.000000 35 35 35 1.000000
-0.334555 0.517074 -0.381403 0.000000 -0.221736 -0.975107 35 35 35 1.000000
-0.200962 0.504708 -0.352083 0.000000 -0.221736 -0.975107 16 13 18 1.000000
0.585584 -0.192573 0.256243 0.000000 1.000000 0.000000 105 97 70 1.000000
0.156424 -0.098626 -0.214887 0.000000 -0.221736 -0.975107 33 93 219 1.000000
0.164661 -0.244269 0.339078 0.000000 -1.000000 -0.000000 35 35 35 1.000000
0.382229 -0.192573 0.202756 0.000000 -1.000000 -0.000000 100 81 61 1.000000
-0.552363 0.717717 -0.413529 -0.032342 0.974597 -0.221620 35 35 35 1.000000
-0.330050 0.253952 -0.321570 0.000000 0.221736 0.975107 118 105 77 1.000000
-0.156631 -0.028911 -0.257248 0.000000 0.221736 0.975107 71 43 17 1.000000
-0.030014 0.292660 -0.303864 0.000000 -0.221736 -0.975107 36 39 44 1.000000
0.111156 -0.109717 -0.238873 0.000000 -0.221736 -0.975107 35 35 35 1.000000
0.467240 0.467404 -0.343600 0.000000 0.221736 0.975107 33 13 8 1.000000
0.461229 -0.244269 0.125540 0.000000 1.000000 0.000000 9 7 8 1.000000
0.514751 -0.192573 0.626155 0.000000 1.000000 0.000000 35 35 35 1.000000
0.380136 0.274567 -0.299750 0.000000 -0.221736 -0.975107 70 62 63 1.000000
-0.439762 -0.244269 0.338028 0.000000 -1.000000 -0.000000 35 35 35 1.000000
0.543345 -0.244269 0.020760 0.000000 1.000000 0.000000 5 3 2 1.000000
0.275572 -0.244269 0.098799 0.000000 -1.000000 -0.000000 35 35 35 1.000000
-0.535898 0.542367 -0.387155 0.000000 -0.221736 -0.975107 35 35 35 1.000000
0.116899 -0.174842 0.103166 0.000000 -1.000000 -0.000000 80 80 80 1.000000
-0.543992 -0.192573 0.002167 0.000000 1.000000 0.000000 129 114 79 1.000000
0.199911 -0.183707 0.222690 0.000000 1.000000 0.000000 80 80 80 1.000000
0.298404 0.358479 -0.345339 0.000000 0.221736 0.975107 123 121 122 1.000000
-0.101459 0.133273 -0.294128 0.000000 -0.221736 -0.975107 35 35 35 1.000000
-0.433973 -0.048378 -0.252821 0.000000 0.221736 0.975107 30 86 211 1.000000
0.598061 0.413409 -0.318068 0.000000 0.221736 0.975107 35 35 35 1.000000
0.460856 -0.192573 0.047236 0.000000 -1.000000 -0.000000 80 80 80 1.000000
-0.004312 -0.007229 -0.235671 0.000000 0.221736 0.975107 37 39 39 1.000000
-0.108172 -0.244269 0.579942 0.000000 1.000000 0.000000 241 156 49 1.000000
0.042125 0.251882 -0.294592 0.000000 -0.221736 -0.975107 112 110 117 1.000000
-0.270704 0.578732 -0.368916 0.000000 0.221736 0.975107 6 4 3 1.000000
0.505005 0.527405 -0.383752 0.000000 -0.221736 -0.975107 35 35 35 1.000000
0.273183 0.106314 -0.261490 0.000000 -0.221736 -0.975107 23 15 16 1.000000
0.090913 -0.192573 0.666341 0.000000 1.000000 0.000000 35 35 35 1.000000
0.382440 0.092294 -0.258302 0.000000 -0.221736 -0.975107 32 22 19 1.000000
0.442508 0.086357 -0.256952 0.000000 0.221736 0.975107 29 16 12 1.000000
-0.307143 0.198662 -0.308997 0.000000 0.221736 0.975107 42 34 33 1.000000
-0.087242 -0.186393 -0.192856 0.000000 -0.975107 0.221736 35 35 35 1.000000
0.144089 0.530737 -0.358002 0.000000 0.221736 0.975107 132 78 17 1.000000
-0.308898 0.404062 -0.329197 0.000000 0.221736 0.975107 86 82 85 1.000000
0.571548 0.275685 -0.286750 0.000000 0.221736 0.975107 35 35 35 1.000000
-0.393996 -0.244269 0.343470 0.000000 -1.000000 -0.000000 35 35 35 1.000000
-0.151911 -0.244269 -0.007824 0.000000 -1.000000 -0.000000 35 35 35 1.000000
-0.152694 0.458100 -0.341485 0.000000 -0.221736 -0.975107 5 6 12 1.000000
-0.046315 0.581359 -0.369513 0.000000 -0.221736 -0.975107 30 25 35 1.000000
-0.067215 -0.244269 -0.012451 0.000000 -1.000000 -0.000000 35 35 35 1.000000
-0.282919 0.244835 -0.319497 0.000000 0.221736 0.975107 64 60 44 1.000000
0.434604 0.175420 -0.277204 0.000000 -0.221736 -0.975107 74 63 65 1.000000
0.396008 -0.192573 0.088147 0.000000 1.000000 0.000000 15 26 23 1.000000
0.417903 0.413697 -0.331387 0.000000 0.221736 0.975107 34 18 15 1.000000
0.628348 -0.175220 -0.184216 0.000000 0.221736 0.975107 35 35 35 1.000000
0.116952 0.291284 -0.330059 0.000000 -0.221736 -0.975107 18 32 76 1.000000
0.568831 -0.192573 0.482276 0.000000 1.000000 0.000000 35 35 35 1.000000
-0.483673 0.543758 -0.360963 0.000000 -0.221736 -0.975107 6 4 3 1.000000
0.387370 0.637260 -0.382225 0.000000 0.221736 0.975107 0 0 0 1.000000
-0.373717 0.603023 -0.374440 0.000000 -0.221736 -0.975107 5 3 2 1.000000
-0.130270 0.091453 -0.258110 0.000000 0.221736 0.975107 62 64 64 1.000000
0.270910 0.492152 -0.349228 0.000000 -0.221736 -0.975107 88 71 63 1.000000
-0.625333 0.583482 -0.383003 -0.999549 0.029276 -0.006657 35 35 35 1.000000
0.416798 -0.187402 -0.197291 0.000000 0.975107 -0.221736 85 62 58 1.000000
-0.586827 0.683193 -0.379416 0.000000 -0.221736 -0.975107 60 47 45 1.000000
-0.567149 0.637438 -0.408773 0.000000 0.221736 0.975107 42 15 8 1.000000
-0.169556 -0.192573 -0.056439 0.000000 1.000000 0.000000 186 174 148 1.000000
0.466474 -0.244269 -0.215689 0.000000 -1.000000 -0.000000 35 35 35 1.000000
0.215016 -0.192573 -0.044474 0.000000 -1.000000 -0.000000 25 23 20 1.000000
-0.294273 -0.045473 -0.253482 0.000000 -0.221736 -0.975107 35 35 35 1.000000
-0.087865 -0.192573 0.643759 0.000000 -1.000000 -0.000000 35 35 35 1.000000
0.240889 -0.192573 0.134859 0.000000 1.000000 0.000000 80 80 80 1.000000
0.052340 -0.174842 0.143875 0.000000 1.000000 0.000000 80 80 80 1.000000
0.608223 -0.192573 0.302797 0.000000 1.000000 0.000000 35 35 35 1.000000
0.500729 0.123479 -0.291901 0.000000 -0.221736 -0.975107 35 35 35 1.000000
-0.409633 0.560521 -0.364775 0.000000 0.221736 0.975107 7 5 6 1.000000
-0.296836 0.165741 -0.275003 0.000000 0.221736 0.975107 104 100 100 1.000000
-0.509768 0.070881 -0.253433 0.000000 -0.221736 -0.975107 9 7 8 1.000000
-0.055509 -0.183707 -0.017285 0.000000 -1.000000 -0.000000 80 80 80 1.000000
-0.408118 -0.003632 -0.262997 0.000000 0.221736 0.975107 48 38 35 1.000000
-0.054031 -0.244269 0.531826 0.000000 1.000000 0.000000 150 112 85 1.000000
-0.018716 0.421498 -0.359669 0.000000 0.221736 0.975107 237 255 240 1.000000
-0.480400 0.556185 -0.390297 0.000000 0.221736 0.975107 30 8 6 1.000000
-0.535426 -0.244269 0.271035 0.000000 -1.000000 -0.000000 35 35 35 1.000000
0.259719 0.022205 -0.268872 0.000000 -0.221736 -0.975107 35 35 35 1.000000
0.099258 0.096979 -0.285875 0.000000 -0.221736 -0.975107 35 35 35 1.000000
-0.097457 0.262978 -0.323623 0.000000 0.221736 0.975107 4 40 51 1.000000
0.191081 -0.244269 0.208571 0.000000 -1.000000 -0.000000 35 35 35 1.000000
-0.373654 0.204716 -0.310374 0.000000 -0.221736 -0.975107 35 35 35 1.000000
-0.570813 0.578764 -0.395431 0.000000 0.221736 0.975107 88 59 51 1.000000
-0.625333 -0.193320 -0.045490 0.999997 0.000000 -0.002298 129 124 130 1.000000
-0.142407 -0.244269 0.082545 0.000000 1.000000 0.000000 6 4 3 1.000000
0.281788 -0.039485 -0.254844 0.000000 0.221736 0.975107 6 8 9 1.000000
-0.607940 -0.192573 0.014942 0.000000 1.000000 0.000000 35 35 35 1.000000
0.561455 -0.192573 0.164885 0.000000 1.000000 0.000000 86 75 69 1.000000
0.381177 0.063350 -0.278228 0.000000 -0.221736 -0.975107 35 35 35 1.000000
0.067228 0.449720 -0.366087 0.000000 -0.221736 -0.975107 35 35 35 1.000000
0.282714 0.645504 -0.370845 0.000000 0.221736 0.975107 35 35 35 1.000000
-0.416513 -0.244269 0.581748 0.000000 -1.000000 -0.000000 35 35 35 1.000000
0.547103 -0.192573 -0.130825 0.000000 -1.000000 -0.000000 61 153 224 1.000000
-0.258460 -0.192573 0.231564 0.000000 -1.000000 -0.000000 64 70 80 1.000000
-0.369295 -0.174842 0.232971 0.000000 1.000000 0.000000 80 80 80 1.000000
-0.563245 -0.244269 0.359333 0.000000 1.000000 0.000000 103 82 39 1.000000
-0.027399 0.715621 -0.422750 0.002041 -0.975105 0.221735 0 2 2 1.000000
-0.285051 0.461247 -0.342200 0.000000 -0.221736 -0.975107 11 9 8 1.000000
0.534973 0.254833 -0.295262 0.000000 -0.221736 -0.975107 113 105 106 1.000000
0.577562 -0.158712 -0.187970 0.000000 0.221736 0.975107 35 35 35 1.000000
0.382633 -0.192573 0.679178 0.000000 1.000000 0.000000 35 35 35 1.000000
0.486007 0.505448 -0.352251 0.000000 -0.221736 -0.975107 96 69 64 1.000000
-0.301588 -0.174842 0.171037 0.000000 1.000000 0.000000 80 80 80 1.000000
0.516581 -0.192573 0.338758 0.000000 -1.000000 -0.000000 80 80 80 1.000000
0.390508 -0.178877 -0.223147 0.000000 -0.221736 -0.975107 35 35 35 1.000000
-0.097847 -0.244269 0.046548 0.000000 1.000000 0.000000 9 7 6 1.000000
-0.175405 -0.174842 0.345643 0.000000 -1.000000 -0.000000 80 80 80 1.000000
-0.124341 -0.174842 0.276945 0.000000 -1.000000 -0.000000 80 80 80 1.000000
-0.053957 -0.244269 0.598588 0.000000 -1.000000 -0.000000 35 35 35 1.000000
0.513094 -0.244269 -0.057890 0.000000 -1.000000 -0.000000 35 35 35 1.000000
-0.436988 0.425797 -0.334139 0.000000 -0.221736 -0.975107 13 11 12 1.000000
-0.564899 0.407652 -0.356521 0.000000 0.221736 0.975107 43 23 18 1.000000
0.163541 -0.183707 -0.080610 0.000000 -1.000000 -0.000000 80 80 80 1.000000
0.641229 -0.093016 -0.225587 -0.999993 -0.003630 0.000825 152 185 142 1.000000
0.634082 -0.192573 0.345925 0.000000 -1.000000 -0.000000 8 6 5 1.000000
-0.058778 -0.110142 -0.199015 0.000000 -0.221736 -0.975107 10 2 3 1.000000
0.280915 0.060320 -0.277539 0.000000 0.221736 0.975107 8 6 5 1.000000
-0.526638 0.351887 -0.317332 0.000000 0.221736 0.975107 46 43 46 1.000000
0.126636 0.619595 -0.378208 0.000000 0.221736 0.975107 15 5 2 1.000000
-0.389529 0.459106 -0.341713 0.000000 -0.221736 -0.975107 11 9 8 1.000000
-0.456311 -0.216387 0.710503 0.027250 0.000000 -0.999629 42 32 29 1.000000
-0.079114 -0.241927 0.710503 0.005112 0.000000 -0.999987 18 3 0 1.000000
0.339075 -0.086971 -0.217537 0.000000 -0.221736 -0.975107 48 122 231 1.000000
0.356418 0.258154 -0.296018 0.000000 -0.221736 -0.975107 98 94 96 1.000000
0.500175 0.006644 -0.238825 0.000000 -0.221736 -0.975107 38 25 21 1.000000
